364,553,646,594,488,436,412,456,486,607,515,543,617,818,583,513,420,311,231,196,148,123,123,123,123,121,94,116,215,170,144,337,476,543,314,1035,911,915,888,782,844,756,665,602,473,365,310,201,7,-36,-41,481,1087,1341,1435,1565,1671,1218,1120,1088,1652,1351,666,704,1017,1319,1894,379,122,152,94,124,173,245,292,313,271,204,186,178,208,815,2224,3473,4219,5279,5731,5308,4923,4932,4790,4890,4875,3250,1797,1846,3263,4156,4019,3811,4282,3074,2281,1556,664,678,870,762,843,603,456,335,119,297,427,147,113,305,536,504,430,51,-53,-70,-88,-108,-197,-917,-847,-371,-2271,-3836,-3537,-3821,-3977,-4899,-4633,-4289,-3742,-3128,-2790,-3511,-3680,-7014,-5873,-5808,-5897,-5986,-5859,-6062,-5982,-5911,-5921,-5615,-5970,-6005,-5999,-5928,-5876,-5829,-5772,-5765,-5767,-5826,-5781,-5679,-5620,-5578,-5583,-5557,-5758,-5741,-5757,-5691,-5610,-5406,-5288,-5044,-5176,-5279,-4437,-3161,-3838,-4016,-4552,-5319,-5141,-5016,-4577,-4646,-4813,-4882,-4944,-5086,-5183,-5272,-5400,-5039,-5230,-5418,-5524,-5611,-5644,-5768,-5844,-5756,-5623,-5473,-5359,-5430,-5374,-5263,-5017,-4855,-4889,-4642,-4780,-4900,-4890,-4800,-4740,-4670,-4640,-4583,-4250,-4229,-4346,-4098,-4307,-4580,-4452,-4491,-4414,-4345,-4197,-4223,-4259,-4188,-4168,-3864,-3773,-3582,-3618,-3555,-948,30,403,-230,12,332,768,1762,2198,1841,1299,1435,1274,1416,640,270,171,106,47,-1,-20,-35,-41,-46,-45,-57,-410,-1389,-1919,-713,-241,-57,-23,15,24,-34,-620,-927,-908,-3575,-5107,-4611,-4547,-4696,-5153,-5362,-5340,-5187,-5028,-5134,-5128,-4982,-5156,-5281,-5605,-5666,-5762,-5816,-5667,-5760,-5684,-5524,-5463,-5437,-5268,-4989,-4944,-4905,-4398,-4019,-3702,-3337,-3012,-3399,-3580,-3876,-4047,-4497,-4563,-4847,-4814,-4834,-4812,-4886,-4806,-4846,-4705,-4836,-5025,-5173,-5077,-5173,-5034,-4901,-4789,-4623,-4424,-3849,-2158,-1815,-2915,-1955,-858,-278,17,243,471,441,491,475,453,458,458,457,395,272
326,421,380,463,516,577,510,464,519,555,524,503,515,428,410,496,654,635,282,182,154,152,152,154,155,158,177,234,220,210,180,302,589,179,-708,81,955,1082,920,931,1040,882,746,601,526,478,377,251,83,-13,-55,-19,317,910,979,686,437,670,552,664,923,1517,1172,814,1081,1418,1456,341,50,89,155,178,249,286,405,457,344,205,182,159,122,124,188,286,361,1325,2850,3122,3400,3468,2626,2388,2273,1212,310,367,1619,1453,2941,3511,3399,2611,2492,2099,1749,1513,1109,952,855,440,602,398,224,268,208,195,294,561,584,755,114,-38,-75,-99,-100,-146,-1038,-1006,-630,-1574,-4531,-4866,-4296,-4627,-4213,-4664,-4925,-4438,-4489,-3289,-2892,-3566,-1992,-7208,-5583,-4459,-5208,-5524,-5584,-5926,-5945,-5503,-5831,-5583,-5876,-5983,-6012,-5964,-5928,-5899,-5814,-5611,-5720,-5775,-5619,-5549,-5489,-5722,-5465,-5777,-5901,-6030,-6057,-6009,-5929,-5780,-5649,-5428,-5417,-5377,-5247,-4682,-4299,-4082,-3746,-5042,-5239,-5044,-4341,-4432,-4470,-4428,-4538,-4647,-4817,-5070,-5151,-5079,-4145,-4705,-4957,-5262,-5486,-5568,-5596,-5616,-5543,-5344,-5378,-5388,-5331,-5296,-5158,-5026,-4984,-4889,-4801,-4809,-4658,-4748,-4724,-4780,-4748,-4643,-4479,-4325,-4228,-4400,-4413,-4421,-4459,-4394,-4460,-4339,-4302,-4280,-4208,-4113,-4047,-4021,-3840,-3825,-3777,-3670,-2847,-279,282,-101,-1206,-316,343,1362,2185,1806,1457,1484,1269,1446,651,289,165,121,1,-87,-584,-768,-583,-766,-992,-1092,-1572,-2191,-2824,-3023,-1793,-168,-41,6,23,-4,-462,-588,-1143,-3308,-4792,-4544,-4620,-4949,-5248,-5422,-5358,-5180,-5015,-5114,-5233,-5164,-5377,-5578,-5856,-5974,-5993,-6145,-5902,-5926,-5698,-5620,-5576,-5477,-5125,-4963,-4829,-4754,-4260,-4080,-3833,-2951,-3195,-3838,-3911,-4027,-4404,-4760,-4886,-4893,-4915,-4853,-5049,-5027,-5011,-5067,-4993,-4987,-5028,-5112,-5183,-5173,-5020,-4892,-4757,-4555,-4254,-3615,-3117,-3142,-1959,-2029,-605,112,282,393,468,460,492,468,372,483,468,357,261,249
247,219,253,401,614,816,779,771,712,675,585,588,610,559,516,484,541,509,265,206,186,183,184,233,280,301,300,284,278,292,282,296,298,422,-751,-700,226,787,833,962,1237,802,737,593,584,611,488,368,182,81,-14,-39,-58,5,111,7,-47,652,827,743,995,905,670,785,888,686,674,284,76,89,215,263,254,298,432,365,303,258,188,143,121,102,91,90,64,77,208,296,198,252,283,260,102,217,836,1319,673,1122,2775,3157,2402,1921,2110,2165,2026,1482,1344,944,817,621,674,282,274,469,329,296,573,587,675,241,-30,-76,-121,-137,-262,-1123,-1379,-444,-1411,-4496,-4511,-4539,-4908,-4952,-4900,-3866,-5205,-4882,-4755,-4082,-2876,-2966,-1871,-4727,-3956,-4474,-5224,-5468,-5588,-5940,-5812,-5767,-5611,-5793,-5808,-5896,-5925,-5967,-5929,-5847,-5781,-5786,-5691,-5472,-5711,-5705,-5759,-5910,-5962,-6001,-6049,-6080,-6049,-6063,-6052,-5898,-5694,-5592,-5598,-5506,-5377,-5287,-4996,-4179,-4664,-4182,-4017,-4971,-4422,-4503,-4369,-3965,-4279,-4373,-4589,-4850,-5024,-5050,-4652,-4547,-4739,-4850,-5020,-5221,-5358,-5332,-5381,-5383,-5410,-5270,-5303,-5299,-5193,-5098,-5032,-4912,-4841,-4753,-4681,-4748,-4727,-4729,-4666,-4522,-4507,-4478,-4531,-4489,-4631,-4585,-4537,-4527,-4483,-4410,-4334,-4181,-4131,-3952,-3836,-4087,-3979,-3960,-3865,-3631,-3503,-2715,-252,328,-448,-1310,-49,529,1672,2393,1890,1408,1216,1235,1150,673,178,72,-2,-231,-1399,-1854,-1782,-1873,-2105,-2608,-2831,-2653,-2917,-3102,-3147,-515,-71,-19,6,-27,-452,-409,-449,-3912,-4653,-4481,-4863,-5118,-5368,-5423,-5409,-5319,-5262,-5023,-5230,-5351,-5489,-5790,-5884,-5993,-6011,-6055,-6055,-5945,-5883,-5728,-5649,-5517,-5112,-4937,-4814,-4514,-4290,-3908,-3347,-3051,-3588,-3771,-3878,-4306,-4853,-4874,-5083,-5119,-5219,-5253,-5565,-5636,-5515,-5453,-5154,-5068,-5142,-5099,-5076,-5160,-5018,-4895,-4675,-4361,-3940,-3592,-3643,-3526,-2489,-941,8,175,304,367,570,528,337,229,353,373,364,291,244,242
248,294,344,627,905,929,1050,1206,1185,1047,826,729,691,659,555,541,513,375,281,314,283,240,305,427,477,477,473,374,320,302,270,305,255,337,40,-851,-612,459,508,887,998,878,942,820,718,799,624,517,351,170,16,8,-37,-48,-48,53,27,-305,-68,37,85,97,148,190,245,241,124,279,47,53,175,171,193,445,485,349,300,415,309,228,134,109,102,81,69,68,54,46,30,58,361,769,692,879,1480,527,556,880,2131,2124,1968,1939,2167,2056,1803,1187,896,766,654,485,486,447,473,571,350,429,604,635,396,27,-58,-53,-490,-1067,-1615,-1441,-926,-1997,-4803,-5573,-4350,-3164,-3115,-3781,-4560,-3419,-4560,-5212,-4909,-4262,-2677,-2466,-2592,-3233,-3732,-4597,-4885,-4237,-4506,-5504,-5697,-5560,-5487,-5676,-5733,-5772,-5902,-5912,-5839,-5794,-5807,-5758,-5565,-5752,-6022,-6041,-6063,-5814,-5975,-5955,-6115,-6061,-6015,-5905,-5887,-5816,-5757,-5716,-5662,-5603,-5472,-5365,-5183,-5117,-5084,-4256,-3432,-3311,-2779,-2004,-2879,-2242,-2706,-4948,-4687,-4596,-4850,-4832,-4655,-4625,-4600,-4803,-4873,-4900,-4902,-5120,-5215,-5186,-5296,-5184,-5265,-5169,-5209,-5156,-5059,-4993,-4950,-4785,-4675,-4720,-4746,-4681,-4757,-4756,-4682,-4547,-4573,-4510,-4632,-4657,-4591,-4423,-4330,-4397,-4414,-4340,-4294,-4201,-4042,-4077,-3790,-3896,-3917,-3875,-3718,-3515,-2021,-131,188,-1153,-1091,41,889,2218,2106,1787,1396,1392,1677,1526,255,102,-4,-282,-1909,-3376,-3443,-3172,-3163,-3451,-3330,-3264,-3268,-3245,-3256,-1192,-70,-32,-6,-35,-516,-121,-1671,-2528,-4633,-4734,-5168,-5365,-5418,-5434,-5458,-5521,-5474,-5323,-5442,-5531,-5515,-5779,-5825,-5769,-5761,-5979,-5969,-5859,-5750,-5572,-5431,-5214,-4939,-4830,-4720,-4563,-3987,-3598,-3185,-3474,-3875,-3960,-4099,-4628,-4823,-4922,-5234,-5633,-5671,-5705,-5701,-5752,-5907,-5844,-5540,-5406,-5338,-4890,-5142,-5171,-5030,-4856,-4585,-4027,-3427,-3122,-3223,-2253,-305,72,168,323,379,388,439,494,227,250,328,321,301,250,239,187
255,337,523,673,919,1275,1172,1230,1212,1276,997,845,765,758,564,520,523,464,463,511,444,438,474,458,533,668,659,504,395,316,239,305,253,299,514,-360,-921,158,728,765,887,938,945,935,832,674,738,533,400,236,123,23,-4,-9,17,300,162,-1109,-2036,-2033,-1965,-1524,-1880,-1900,-2053,-1462,-90,28,25,46,77,77,356,669,473,461,392,481,439,436,407,351,319,272,231,319,226,129,28,26,60,82,275,1006,494,469,355,1146,1549,1819,1684,1703,1866,1795,1432,1048,839,514,356,300,461,510,527,352,432,326,446,298,14,-50,266,725,-1242,-1060,-859,-894,-2224,-5672,-5609,-4248,-4098,-2534,-4136,-4399,-4223,-4929,-4476,-5180,-4797,-4481,-2973,-1781,-2892,-5752,-4770,-5447,-5781,-5517,-5262,-5336,-5020,-5497,-4767,-4859,-5075,-5695,-5751,-5726,-5680,-5305,-4966,-4812,-5245,-5398,-5840,-5883,-6073,-5675,-6055,-6068,-5975,-5906,-5842,-5747,-5684,-5651,-5699,-5710,-5703,-5652,-5584,-5450,-5225,-5274,-5181,-4948,-4035,-4104,-4370,-4260,-3964,-2742,-1743,-3606,-4383,-4807,-4890,-4727,-4570,-4609,-4569,-4546,-4442,-4427,-4478,-4667,-5104,-5138,-5291,-5253,-5249,-5282,-5231,-5189,-5123,-5120,-5007,-4831,-4708,-4812,-4898,-4796,-4827,-4651,-4540,-4700,-4726,-4668,-4585,-4576,-4542,-4425,-4389,-4311,-4303,-4250,-4236,-4167,-4151,-4038,-3985,-3887,-3758,-3700,-3490,-3590,-3370,-923,34,-209,-1597,-1029,81,1266,2360,2009,1898,1767,1936,1920,649,216,-38,-1028,-3008,-3629,-3656,-3637,-3628,-3618,-3692,-2691,-1754,-2733,-3398,-2834,-522,-184,-204,-436,-584,-22,-538,-827,-2835,-4497,-5277,-5448,-5444,-5443,-5484,-5586,-5552,-5540,-5617,-5680,-5624,-5759,-5804,-5761,-5771,-5990,-5981,-6027,-5974,-5708,-5557,-5356,-5150,-4839,-4632,-4424,-3824,-3340,-3367,-3720,-3932,-4327,-4664,-4727,-4877,-5053,-5482,-5491,-5818,-5894,-5974,-5921,-5894,-5945,-5582,-5512,-5396,-5440,-5367,-5142,-4995,-4785,-4514,-4089,-3431,-2851,-2404,-733,-5,152,253,269,273,300,252,275,277,303,273,245,247,248,253,241
308,431,540,596,926,1636,1528,1314,1070,858,1036,925,819,840,736,645,546,504,624,743,561,511,482,485,639,897,754,492,270,250,196,281,284,397,536,27,-927,-789,-35,657,911,1025,962,879,880,732,772,488,310,182,108,63,69,83,90,170,575,580,-167,-2935,-3315,-3322,-3116,-2767,-2650,-1652,-401,-108,19,75,27,29,104,217,362,497,467,483,474,451,541,550,596,685,644,428,187,62,1,5,25,131,669,1405,357,237,500,1081,1223,1660,1586,1523,1591,1718,1509,1077,597,317,257,211,191,261,220,137,203,284,103,-6,-41,-63,957,-759,-3944,-3757,-3928,-4400,-5797,-5848,-5527,-4899,-4576,-4665,-4343,-3926,-4555,-4950,-4349,-4849,-4863,-4485,-3541,-1738,-2892,-4814,-5994,-5817,-5859,-5799,-5336,-5614,-4688,-5346,-4638,-3959,-5421,-5516,-5438,-5222,-5147,-4687,-5379,-5301,-5006,-5601,-5839,-5947,-5974,-5674,-5790,-5669,-5823,-5731,-5661,-5557,-5220,-5279,-5484,-5594,-5597,-5642,-5647,-5592,-5457,-5318,-5159,-5061,-4716,-4347,-4604,-4647,-4668,-4691,-4648,-3153,-3047,-2292,-3602,-3512,-3855,-4705,-4632,-4439,-4293,-4103,-4109,-4331,-4865,-5269,-5454,-5388,-5299,-5315,-5348,-5362,-5411,-5362,-5324,-5248,-5388,-5290,-5062,-4934,-4900,-4889,-4748,-4856,-4899,-4793,-4693,-4680,-4649,-4411,-4158,-4268,-4225,-4162,-4165,-4149,-4169,-4024,-4017,-3929,-3900,-3925,-3764,-3727,-3570,-3010,-1074,-272,-907,-2315,-1011,142,1639,2050,2241,2043,2085,1777,1163,277,-183,-1893,-3062,-3627,-3679,-3625,-3653,-3270,-1542,-158,-212,-1360,-2535,-2813,-1922,-1368,-1106,-556,-390,-83,-345,-313,-893,-2552,-4683,-5224,-5330,-5407,-5395,-5322,-5551,-5601,-5642,-5667,-5705,-5795,-5818,-5873,-5973,-5948,-5938,-5885,-5900,-5758,-5647,-5315,-5140,-4747,-4364,-4203,-4168,-3788,-3519,-3750,-4124,-4493,-4489,-4817,-5194,-5481,-5434,-5634,-5747,-5804,-5950,-5876,-5567,-5559,-5593,-5470,-5352,-5392,-5298,-5128,-4953,-4736,-4426,-3905,-3587,-2975,-1652,-93,104,172,231,255,245,247,243,261,296,331,310,266,252,251,244,244
310,330,431,447,782,1088,975,995,1023,752,726,880,896,828,751,896,717,685,900,981,531,492,501,510,711,815,616,451,250,245,305,287,333,375,521,420,-215,-974,-482,479,973,946,902,859,844,792,693,458,276,217,150,120,79,118,122,144,407,499,553,-380,-2908,-3201,-3077,-2518,-2299,-2259,-1616,-555,-47,16,93,93,26,134,355,383,351,424,606,529,595,541,421,496,425,427,185,21,0,7,27,24,524,1240,354,151,800,1043,1295,1512,1245,1201,1211,972,612,563,417,195,169,186,228,346,171,27,50,-18,-36,-43,-181,-643,204,-2128,-4836,-5381,-5661,-5469,-5562,-5521,-5008,-5407,-5696,-5742,-5613,-5280,-4315,-4914,-4827,-4743,-4653,-4536,-4079,-2947,-2764,-3429,-4423,-6407,-6316,-5633,-5403,-5644,-5600,-5695,-5512,-4851,-4958,-4885,-5163,-5147,-5391,-5150,-5165,-5064,-5136,-5423,-5639,-5714,-5795,-5850,-5534,-5593,-5692,-5489,-5475,-4869,-4772,-3508,-4855,-5107,-4938,-5039,-5393,-5558,-5501,-5401,-5270,-5139,-5000,-4823,-4734,-4864,-4789,-4642,-4515,-3978,-4165,-4308,-4254,-3768,-3601,-3881,-3166,-4480,-4600,-4481,-4381,-4469,-4854,-5197,-5434,-5485,-5423,-5366,-5398,-5550,-5594,-5564,-5567,-5469,-5342,-5266,-5125,-5156,-5053,-5092,-5092,-5025,-4902,-4859,-4729,-4713,-4709,-4501,-4244,-4356,-4016,-4085,-4088,-4097,-4089,-4084,-3952,-3976,-3939,-4063,-3829,-3749,-3688,-3365,-3141,-2602,-2474,-2925,-2401,-782,333,1556,2077,2208,2116,1559,704,64,-315,-2175,-3044,-3583,-3597,-3404,-1951,-482,-67,-52,-49,-608,-1655,-1271,-147,14,11,54,-29,-141,-282,-151,-1192,-1432,-1892,-3726,-4769,-5362,-5421,-5406,-5474,-5630,-5641,-5643,-5676,-5755,-5737,-5805,-5765,-5714,-5876,-5769,-5701,-5527,-5482,-5236,-5007,-4728,-4524,-4579,-4241,-3602,-2934,-3031,-4110,-4484,-4701,-4890,-5295,-5437,-5580,-5385,-5372,-5427,-5283,-5275,-5142,-5188,-5337,-5462,-5436,-5316,-5165,-5063,-4905,-4695,-4443,-4153,-3698,-3009,-1236,8,211,241,246,307,317,368,338,379,384,383,383,366,300,261,251,297
428,432,478,570,650,641,669,682,836,834,537,549,659,570,563,773,1271,1344,1546,807,548,504,550,567,737,774,578,459,354,322,305,305,305,332,583,701,382,-763,-807,328,1441,1182,1092,796,762,777,582,437,292,246,193,153,129,123,123,96,207,246,244,-621,-3032,-2545,-3063,-3215,-3086,-2819,-2214,-1864,-384,-29,145,115,9,219,321,344,374,514,471,359,419,291,295,244,327,364,161,1,-7,-42,-15,-14,308,1236,314,170,819,1233,1070,1433,1072,1057,1042,899,706,112,247,183,22,40,45,52,0,-35,-63,-124,-201,-471,-1994,-2823,-1546,-1860,-4342,-5133,-5525,-5444,-5544,-5147,-4684,-5538,-5724,-5687,-5590,-5600,-5546,-5482,-4243,-4568,-4606,-4632,-4479,-3680,-3393,-3004,-2683,-4439,-6031,-5394,-5307,-5492,-5493,-5464,-5640,-5320,-4934,-4884,-4745,-4750,-4437,-3945,-4387,-4843,-4723,-4369,-5339,-5630,-5294,-5627,-5677,-5664,-5403,-5544,-5391,-4523,-2708,-2888,-2795,-2564,-2968,-3966,-4546,-5015,-5266,-5331,-5431,-5318,-5252,-5098,-4968,-4644,-4241,-4113,-3963,-4410,-4374,-4494,-4541,-4332,-4390,-3343,-3165,-2537,-1673,-3474,-5099,-4995,-4992,-5163,-5305,-5412,-5349,-5389,-5427,-5449,-5494,-5535,-5529,-5443,-5355,-5233,-5102,-5206,-5150,-5167,-5201,-5193,-5019,-4926,-4784,-4677,-4737,-4763,-4457,-4550,-4464,-4323,-4170,-4000,-3960,-3983,-3858,-3915,-3906,-3949,-3712,-3730,-3654,-3425,-3316,-3209,-3007,-2861,-2835,-1473,39,1114,1750,1904,2149,1833,1042,165,-24,-1599,-2792,-3342,-3056,-1541,-29,-26,-18,-7,-6,-416,-2180,-2677,-2454,-1554,-2122,-2302,-402,29,-172,-1237,-1920,-2403,-1843,-2123,-1069,-4039,-5164,-5345,-5230,-5440,-5490,-5470,-5495,-5583,-5661,-5623,-5618,-5397,-5245,-5362,-5390,-5365,-5202,-5060,-4955,-4798,-4674,-4385,-3905,-3612,-3310,-3505,-4192,-4376,-4733,-4895,-5103,-5488,-5513,-5477,-5459,-5398,-5271,-4881,-4413,-4660,-4936,-5159,-5201,-5109,-5010,-4917,-4778,-4567,-4344,-4097,-3661,-2707,-607,34,126,130,212,314,337,363,368,366,366,366,347,366,357,237,240,323
463,581,682,734,551,506,445,579,823,625,488,445,517,527,488,627,1063,1576,1544,684,531,490,583,668,756,683,554,501,450,422,307,306,306,326,582,616,647,-484,-1100,-38,899,1555,1213,867,737,661,549,412,343,276,227,152,152,152,152,152,152,122,-52,-1850,-3358,-3340,-3491,-3367,-3197,-2939,-2565,-2889,-2730,-499,-34,-19,12,500,500,478,438,387,275,254,387,427,407,381,368,76,-1,-88,-292,-422,-160,-114,36,482,262,239,950,1067,943,931,771,919,930,1094,691,241,28,-22,-45,-9,-5,-52,-70,-95,-122,-347,-513,-1240,-2542,-3075,-2822,-2139,-3248,-5399,-5623,-5697,-5542,-5439,-5334,-5632,-5766,-5857,-5949,-5933,-5823,-5457,-4167,-4606,-4637,-4735,-4655,-4364,-2922,-3644,-2988,-2490,-3572,-4880,-4031,-4050,-4282,-5211,-5665,-5648,-5428,-5034,-3683,-4625,-5201,-5567,-4303,-4639,-4550,-3840,-5170,-5431,-5406,-5433,-5435,-5536,-5516,-5406,-4822,-3655,-3173,-3482,-2975,-3647,-3804,-3559,-4295,-4468,-5078,-4998,-5349,-5227,-5046,-4103,-3726,-3617,-4156,-4534,-4818,-4702,-4814,-4796,-4680,-4613,-4597,-4598,-4526,-4250,-3251,-1208,-2261,-5375,-5115,-5000,-5152,-5252,-5391,-5372,-5392,-5354,-5350,-5442,-5506,-5389,-5397,-5362,-5139,-5194,-5182,-5161,-5198,-5192,-5118,-5028,-4951,-4726,-4763,-4829,-4686,-4613,-4462,-4424,-4166,-4140,-4109,-3952,-3954,-3899,-3787,-3791,-3760,-3692,-3675,-3301,-3319,-3161,-2810,-2967,-3076,-3331,-152,1523,1620,1799,1856,2063,2039,1424,204,-696,-2499,-2733,-2024,-1247,-26,-7,38,16,-70,-983,-4068,-4429,-4259,-4268,-3467,-2982,-2812,-950,9,178,33,-1038,-1817,-3484,-2253,-2549,-1884,-4573,-5272,-5562,-5836,-5308,-5383,-5465,-5516,-5476,-5284,-5081,-4915,-5357,-5275,-5441,-5367,-5125,-5036,-4736,-4415,-4211,-3925,-3683,-3382,-3686,-4121,-4590,-4859,-5039,-5266,-5442,-5521,-5476,-5473,-5308,-5018,-4798,-4603,-4428,-4636,-4906,-4956,-4840,-4733,-4618,-4508,-4310,-4075,-3845,-3444,-2412,-385,19,79,97,188,347,331,345,374,366,366,366,366,366,366,296,264,366
401,624,635,539,486,383,458,580,954,700,481,457,457,457,457,505,569,729,880,543,427,456,617,707,664,547,551,456,314,318,299,334,326,358,524,674,718,-299,-967,-539,-64,895,1644,1209,1086,812,625,543,479,325,287,173,166,161,163,157,144,56,-1224,-3269,-3286,-3617,-3512,-3398,-3229,-3055,-2935,-3105,-3057,-1151,-40,-106,1,494,579,513,439,411,341,226,355,549,547,519,256,-143,-917,-1668,-1669,-1529,-1427,-1414,-812,2,300,150,584,644,889,671,684,840,1091,1185,690,97,-29,-51,-10,248,101,-94,-153,-362,-959,-1833,-2090,-3071,-3299,-3569,-3274,-1426,-2784,-5104,-5563,-5632,-5412,-5472,-5560,-5732,-5772,-5925,-5969,-5931,-5770,-5090,-4438,-4687,-4823,-4963,-4702,-4461,-3265,-3520,-3828,-2613,-3594,-5058,-4477,-4334,-3966,-4834,-5212,-5287,-5645,-5685,-5233,-4773,-5341,-5261,-4736,-4813,-4145,-5065,-4483,-4934,-4518,-4213,-5162,-5306,-5022,-4055,-4115,-3236,-3812,-3732,-3339,-4144,-4588,-3903,-3976,-4382,-4639,-4848,-4803,-4861,-3495,-3335,-2929,-3569,-3859,-3967,-4940,-5161,-5189,-5257,-5223,-5192,-4923,-4818,-4572,-4234,-3940,-4007,457,-3991,-5139,-5090,-5237,-5415,-5464,-5470,-5464,-5470,-5396,-5413,-5445,-5418,-5558,-5398,-5282,-5191,-5180,-5132,-5185,-5213,-5183,-5153,-5116,-4928,-4814,-4746,-4807,-4665,-4401,-4425,-4305,-4287,-4294,-4127,-4033,-3977,-3931,-3858,-3692,-3603,-3530,-3421,-3228,-2957,-3146,-3141,-3194,-3525,-1859,709,1329,1492,1849,2010,2627,2594,2146,203,-1617,-1694,-930,-360,-28,29,126,55,-417,-3075,-4483,-4296,-3454,-3456,-2579,-2965,-3437,-3556,-3691,-4048,-3066,-2583,-1467,26,357,-346,-1719,-4142,-6504,-7258,-6875,-6131,-6037,-6394,-5609,-5224,-5042,-5105,-5401,-5521,-5078,-5050,-5061,-5197,-5085,-4838,-4577,-4112,-3679,-3104,-3004,-3654,-3981,-4266,-4745,-5013,-5251,-5534,-5487,-5474,-5370,-5299,-5010,-4930,-4963,-4647,-4782,-4778,-4739,-4553,-4341,-4222,-4096,-3847,-3592,-3478,-3217,-2652,-1402,-69,47,113,160,252,331,441,377,365,366,366,366,366,366,307,268,366
368,510,507,456,439,347,428,534,1066,908,490,458,457,455,452,446,437,439,317,432,427,447,536,783,664,509,497,459,428,386,283,298,358,398,379,577,710,178,-172,-806,-232,328,2040,1650,1226,874,759,644,488,426,397,355,309,275,279,264,7,-365,-3084,-3535,-3608,-3753,-3636,-3562,-3436,-3293,-3277,-3332,-3337,-2785,-631,-79,-31,462,514,566,553,434,405,227,218,353,729,182,-174,-1753,-2284,-2262,-2051,-2006,-1988,-2045,-2109,-705,289,142,318,555,614,466,498,526,413,437,711,298,-30,-68,26,238,-55,-740,-1244,-1718,-2961,-3512,-3581,-3827,-3874,-3675,-1388,-65,-1906,-4823,-5367,-5237,-5133,-5245,-5399,-5653,-5841,-5951,-5967,-5925,-5675,-4753,-4861,-4887,-4938,-4849,-4776,-4586,-3554,-3255,-3880,-2977,-3450,-4785,-5528,-5326,-5168,-4781,-5226,-5588,-5638,-5531,-5674,-5661,-5451,-5636,-5425,-4728,-5207,-5131,-4958,-4522,-4579,-4227,-5075,-5243,-3691,-2111,-3287,-3573,-3532,-3725,-3950,-3862,-4118,-4475,-3611,-3520,-4253,-4025,-3486,-2691,-2740,-4051,-3839,-3653,-4003,-4934,-5119,-5415,-5477,-5448,-5415,-5498,-5347,-5176,-4867,-4238,-3929,-4362,-4081,-5220,-4977,-5100,-5235,-5492,-5607,-5582,-5442,-5487,-5491,-5368,-5422,-5588,-5547,-5436,-5445,-5348,-5182,-5267,-5297,-5167,-5275,-5157,-5167,-5060,-4875,-4746,-4728,-4659,-4188,-4097,-4253,-4046,-3990,-4046,-3906,-3868,-3788,-3774,-3733,-3376,-3531,-3338,-3082,-3144,-3385,-3378,-3293,-3065,-3227,-2485,-85,732,784,912,1369,1478,1900,285,55,-184,-72,-7,14,91,195,38,-707,-4053,-4059,-3203,-2958,-4038,-4301,-4742,-4259,-3354,-2053,-2211,-1845,-1343,-744,-29,538,220,-251,-449,-1261,-1157,-1112,-1155,-2176,-3598,-5567,-6201,-5646,-5516,-5446,-5430,-5045,-4858,-5078,-4864,-4856,-4679,-4358,-4193,-3604,-3351,-3559,-3850,-4112,-4573,-4720,-4910,-5065,-5405,-5665,-5577,-5071,-4969,-5038,-4825,-4832,-4705,-4757,-4568,-4504,-4163,-3881,-3832,-3739,-3493,-3214,-3165,-3159,-2901,-2312,-450,22,89,164,172,330,313,326,318,365,366,366,365,363,340,341,393
319,473,417,454,373,339,385,542,897,616,509,481,453,419,358,291,272,237,245,297,381,678,882,959,652,576,521,514,458,399,357,428,426,392,444,591,637,804,392,-412,-627,-50,741,2081,1339,885,739,661,585,544,605,658,616,597,522,-553,-1408,-1929,-3236,-3453,-3830,-3844,-3750,-3658,-3554,-3443,-3453,-3330,-3476,-3332,-2510,-501,-68,392,619,495,500,531,505,234,194,264,192,-412,-2299,-2661,-2531,-2431,-2350,-2314,-2241,-2268,-2349,-1900,-94,38,59,308,652,284,498,527,194,178,219,426,187,-62,-87,-117,-945,-1526,-1661,-2381,-3291,-3342,-3877,-3842,-3732,-3063,26,454,-1728,-4468,-3808,-3638,-4845,-5283,-5289,-5443,-5754,-5768,-5873,-5770,-5016,-4619,-5040,-4967,-4757,-4680,-4763,-4668,-3760,-3168,-3840,-2922,-3113,-5373,-6234,-5111,-3262,-4219,-4261,-4902,-4655,-5621,-5542,-5693,-5673,-5603,-5488,-5446,-5186,-4983,-5073,-5258,-4860,-4654,-5140,-5270,-4600,-3731,-3709,-4093,-3662,-3917,-4075,-4266,-3788,-4630,-4848,-4523,-3493,-3601,-2960,-3765,-4484,-5028,-5210,-5231,-5036,-4393,-5241,-5297,-5409,-5454,-5521,-5548,-5522,-5450,-5300,-5026,-4686,-4759,-4837,-4920,-4975,-5129,-5229,-5430,-5558,-5464,-5356,-5305,-5255,-5249,-5349,-5449,-5431,-5471,-5465,-5365,-5207,-5191,-5208,-5186,-5194,-5152,-5099,-5049,-4920,-4651,-4618,-4381,-4296,-4161,-3993,-4012,-3887,-3851,-3865,-3718,-3675,-3674,-3746,-3565,-3471,-3396,-3260,-3297,-3463,-3604,-3685,-3396,-2992,-3224,-3850,-2250,-688,1050,1182,1588,2083,1501,204,210,297,389,192,126,206,53,-1672,-3868,-4372,-4245,-3771,-3352,-2396,-2208,-1587,-593,-446,-1195,-1264,-2302,-3577,-3581,-2130,-3565,-3476,-3397,-3165,-2912,-3268,-2519,-771,-497,-2059,-5333,-5833,-5316,-5466,-5381,-5357,-5073,-4802,-4886,-4893,-4652,-4403,-4033,-3871,-3366,-3685,-4098,-4328,-4675,-4790,-4942,-5189,-5302,-5457,-5201,-5082,-5055,-5145,-4841,-4841,-4600,-4547,-4595,-4462,-4145,-3093,-3334,-3433,-3275,-3242,-3234,-3262,-3112,-2396,-458,33,58,90,181,268,251,244,241,290,366,362,328,303,306,331,330
301,495,500,435,384,337,491,460,550,502,457,454,434,396,346,266,173,244,241,336,463,616,977,917,679,685,650,596,475,465,556,509,409,430,474,521,559,810,963,-96,-462,-376,140,2157,1630,1035,940,900,897,783,950,573,214,-836,-1920,-2968,-3573,-3767,-3510,-3167,-3907,-3920,-3843,-3756,-3676,-3611,-3683,-3407,-3548,-3609,-3251,-1913,-238,210,565,514,461,404,431,179,96,-2,-691,-2495,-2959,-2810,-2684,-2645,-2650,-2567,-2444,-2415,-2460,-1930,-35,11,3,52,523,238,509,246,209,183,206,192,552,227,-71,-390,-1303,-825,-873,-2310,-2122,-3493,-3700,-3943,-3705,-2319,570,671,-2277,-4246,-2846,-3549,-4644,-5156,-5392,-5308,-5478,-5618,-5859,-5670,-4666,-4776,-5004,-5025,-4631,-4800,-4814,-4624,-3730,-2946,-3755,-2619,-2996,-5381,-5430,-4776,-4893,-5393,-5002,-5531,-4453,-5571,-5871,-5809,-5688,-5620,-5580,-5536,-4969,-4757,-5154,-4870,-5028,-5012,-5218,-5319,-5409,-5217,-5162,-5346,-5117,-4431,-4100,-4128,-4741,-5086,-4985,-5008,-4779,-4951,-4526,-5201,-5480,-5519,-5276,-5150,-4088,-4458,-4875,-5289,-5389,-5424,-5477,-5311,-5411,-5582,-5503,-5359,-5098,-5031,-4907,-5013,-5161,-5297,-5349,-5331,-5295,-5250,-5294,-5297,-5324,-5310,-5365,-5438,-5420,-5338,-5224,-5327,-5311,-5186,-5040,-4960,-4833,-4943,-5003,-4910,-4820,-4799,-4673,-4590,-4366,-4401,-4257,-4233,-4020,-3878,-3861,-3810,-3556,-3768,-3930,-3675,-3567,-3453,-3217,-3347,-3335,-3213,-3714,-3198,-2938,-2993,-3364,-3740,-3833,-3109,-1629,72,1416,1699,598,427,791,1232,812,164,357,88,-1800,-2698,-1951,-1249,-893,-404,-250,-364,-1087,-1024,-1608,-1951,-1966,-2905,-4008,-3502,-3269,-4051,-4255,-4460,-4740,-4554,-4396,-3760,-1542,-1179,-909,-4094,-5107,-5355,-5245,-5307,-5458,-5480,-5231,-4878,-4607,-4322,-4079,-3837,-3443,-3147,-3629,-4044,-4522,-4739,-4915,-5124,-5226,-5157,-5167,-5030,-5020,-5214,-4987,-4979,-4994,-4707,-4856,-4808,-4630,-4454,-3434,-2252,-2952,-2153,-3689,-3591,-3469,-3170,-2304,-201,28,33,55,133,230,276,244,222,282,356,330,249,269,274,304,295
284,335,328,295,327,290,360,392,496,470,457,359,296,286,340,344,274,273,286,343,495,786,927,925,911,892,846,758,581,617,599,457,401,461,483,484,707,929,1420,312,-52,-431,-12,1556,2101,1286,945,936,1127,1062,679,186,-1139,-2363,-2792,-2909,-3176,-3689,-3913,-3560,-4078,-4014,-3937,-3871,-3823,-3785,-3828,-3833,-3785,-3673,-3114,-2206,-1211,-32,562,612,522,410,320,145,-211,-1542,-2467,-3084,-3021,-2921,-2819,-2794,-2796,-2712,-2631,-2593,-2618,-1356,-25,-17,-12,42,484,208,92,231,155,128,125,213,693,886,153,-274,-689,-1116,-1874,-2526,-1761,-4170,-3903,-3681,-3546,-2572,263,-261,-3418,-3465,-3855,-4463,-5130,-5104,-5479,-5545,-5585,-5428,-5452,-5202,-4279,-5053,-5040,-4899,-4730,-4872,-4883,-4629,-3793,-3320,-3936,-2185,-4064,-5701,-4321,-5099,-5852,-5427,-5062,-5437,-5003,-4669,-6002,-5823,-5259,-5378,-4547,-5467,-4985,-4326,-5021,-5111,-5213,-5381,-5338,-5641,-5621,-5557,-5253,-5280,-5220,-4471,-3939,-4271,-4969,-5357,-5293,-5202,-4875,-5089,-5413,-5441,-5412,-5364,-4905,-4718,-4442,-4574,-4792,-5155,-5426,-5497,-5457,-5580,-5504,-5563,-5586,-5530,-5395,-5297,-5234,-5381,-5523,-5592,-5622,-5439,-5258,-5299,-5326,-5338,-5355,-5372,-5381,-5417,-5247,-5101,-4989,-4851,-4790,-4787,-4822,-4834,-4943,-4996,-4990,-4946,-4835,-4808,-4779,-4594,-4492,-4400,-4360,-4394,-4213,-4039,-4037,-3875,-3946,-3920,-3915,-3787,-3722,-3698,-3279,-3255,-3600,-3821,-3864,-3348,-2931,-3065,-3260,-3500,-3558,-3521,-3650,-3627,-2783,-2128,-1766,-517,116,1109,1909,1055,494,329,474,604,414,-5,-15,-26,-71,-941,-1615,-1965,-2508,-3055,-3480,-3881,-3619,-3078,-3745,-3983,-3838,-4255,-4662,-4740,-4401,-3668,-1763,-2224,-1295,-2773,-4228,-4827,-5275,-5323,-5328,-5482,-5387,-5157,-4653,-3875,-3841,-3861,-3683,-3431,-3725,-4069,-4355,-4728,-4809,-5005,-5082,-5074,-5277,-5247,-5269,-5615,-5504,-5606,-5446,-5239,-5164,-5088,-4888,-4602,-4341,-3760,-1997,-2420,-3793,-3871,-3549,-3045,-1559,-4,60,63,59,91,153,204,244,256,257,268,276,274,287,318,301,273
274,306,289,255,278,290,382,378,482,452,468,418,320,293,325,317,273,286,353,375,548,909,1056,1002,1120,1044,819,789,716,731,491,477,376,416,551,574,681,1041,1792,1561,114,-58,-185,976,2259,1842,1016,757,632,-630,-1358,-1490,-2166,-2308,-2505,-2537,-2762,-3309,-3780,-3993,-4155,-4108,-4039,-3975,-3935,-3912,-3928,-3973,-3971,-3925,-3131,-2067,-1689,-215,305,619,637,488,331,117,-1202,-3104,-3217,-3232,-3121,-3030,-2967,-2941,-2908,-2854,-2801,-2791,-2436,-563,-157,-109,-97,-28,327,202,56,306,236,127,131,151,314,706,600,-190,-1113,-1925,-2664,-3411,-4194,-4086,-4075,-4158,-4031,-3122,-242,128,-118,-260,-2921,-6018,-5247,-5296,-5596,-5626,-5751,-5599,-5453,-4950,-4085,-4966,-5030,-4954,-4708,-4696,-4870,-4688,-3498,-3561,-3400,-2023,-4899,-6353,-5251,-5586,-5843,-5890,-5934,-5889,-5359,-5548,-5484,-5769,-5696,-5560,-4550,-4858,-5168,-4765,-5157,-4721,-4798,-4795,-5286,-5111,-5570,-5719,-5637,-5461,-4802,-4278,-4196,-4766,-5461,-5165,-5524,-5567,-5370,-5513,-5678,-5583,-5184,-5331,-5143,-4962,-4847,-4885,-4977,-4560,-5080,-5521,-5476,-5548,-5617,-5610,-5603,-5573,-5601,-5527,-5533,-5510,-5546,-5647,-5585,-5437,-5385,-5417,-5375,-5269,-5227,-5286,-5059,-5001,-4891,-4802,-4772,-4784,-4761,-4802,-4768,-4835,-4920,-4978,-5022,-4938,-4866,-4777,-4778,-4595,-4600,-4498,-4351,-4405,-4388,-4160,-4139,-4065,-4094,-4114,-3979,-3870,-3862,-3865,-3688,-3350,-3871,-3803,-3716,-3477,-3258,-2991,-3144,-3356,-3508,-3481,-3364,-3311,-3292,-3471,-4042,-4174,-1761,-130,847,1085,899,914,1067,939,537,219,39,-17,-336,-1318,-2176,-2097,-2800,-3934,-4022,-4014,-3445,-3332,-3629,-4091,-4338,-4649,-4947,-4927,-4451,-3514,-1744,-2365,-2407,-1688,-3325,-3727,-5053,-5263,-5305,-5376,-5166,-4972,-4866,-4607,-4247,-3935,-3548,-3587,-3245,-3303,-4103,-4267,-4750,-4966,-4873,-5150,-5015,-5269,-5725,-5760,-5731,-5606,-5669,-5555,-5392,-5196,-4962,-4738,-4466,-3332,-3325,-3968,-4254,-4163,-3760,-2980,-699,38,59,61,61,64,122,251,292,308,312,281,269,273,370,290,313,291
264,214,226,249,258,328,433,437,452,423,358,308,280,274,282,281,277,297,332,408,566,723,909,1147,1403,858,758,757,722,664,510,442,360,431,493,564,888,1627,1796,1768,154,348,-37,667,1161,668,-61,-872,-1402,-2041,-2270,-2367,-2354,-2657,-2952,-3373,-3246,-3291,-3798,-4274,-4256,-4187,-4132,-4080,-4042,-4025,-4045,-4083,-4110,-4104,-3154,-1757,-1257,-638,50,671,754,788,675,200,-1063,-3389,-3381,-3309,-3225,-3148,-3111,-3063,-3024,-2940,-2935,-3007,-1289,-996,-1285,-1377,-462,-61,233,173,-3,87,88,26,74,75,119,260,428,-234,-2467,-2702,-2769,-3962,-4133,-3980,-4199,-4037,-3528,-3791,-672,-71,-175,-27,-1079,-5376,-5043,-5260,-5546,-5742,-5817,-5896,-5876,-5424,-4140,-4866,-5153,-4932,-4712,-4684,-4740,-4331,-3062,-3590,-2315,-3079,-7206,-5741,-5316,-5908,-5964,-5886,-5984,-6010,-6019,-6013,-5948,-5702,-5661,-5565,-5384,-4880,-4896,-4035,-4078,-5260,-5187,-3997,-4964,-4987,-5437,-5523,-5671,-5691,-5570,-4377,-5009,-5538,-5601,-5492,-5297,-5421,-5193,-5731,-5745,-5679,-5211,-5612,-5259,-5252,-5261,-5514,-4858,-4747,-4646,-5370,-5451,-5531,-5538,-5554,-5533,-5519,-5568,-5518,-5498,-5500,-5608,-5616,-5583,-5365,-5249,-5235,-5292,-5318,-5184,-5103,-4985,-4969,-4875,-4818,-4842,-4730,-4714,-4832,-4825,-4857,-4854,-4867,-4999,-4995,-4914,-4806,-4697,-4635,-4597,-4581,-4412,-4305,-4236,-4093,-4171,-4114,-4190,-4183,-4140,-4035,-4005,-4021,-3871,-3669,-3784,-3705,-3784,-3484,-3308,-3064,-2995,-3184,-3326,-3397,-3323,-3299,-3598,-3688,-4028,-4102,-4589,-3788,-1310,-272,225,261,454,822,724,198,4,-60,-868,-1495,-2775,-3147,-3945,-3978,-3962,-3997,-3903,-3396,-3237,-3475,-3912,-4425,-4796,-4964,-4267,-3392,-1528,-2510,-2417,-1541,-1545,-2908,-4548,-4866,-5043,-5240,-5053,-5004,-4975,-4891,-4735,-4633,-4406,-3730,-3265,-3627,-4061,-4256,-4637,-4864,-4921,-5182,-5198,-5725,-5908,-6005,-5801,-5823,-5716,-5690,-5543,-5350,-5168,-4988,-4704,-4628,-4469,-4505,-4555,-4491,-4209,-3591,-999,13,34,41,64,103,195,248,314,384,364,284,273,303,274,326,337,305
274,247,236,243,256,389,505,570,457,410,398,382,310,272,274,292,291,342,485,514,572,692,857,1004,1035,763,697,665,617,649,577,553,446,431,435,620,1430,2236,2066,1608,514,591,447,-57,-282,-897,-1645,-1940,-2069,-2182,-2102,-1264,-1498,-797,-1386,-3591,-3804,-3564,-4268,-4368,-4294,-4279,-4231,-4188,-4155,-4146,-4158,-4179,-4219,-4268,-3426,-1767,-1332,-1634,-216,486,746,713,535,117,-1012,-3420,-3440,-3378,-3315,-3252,-3213,-3159,-3117,-3047,-3049,-3099,-546,-1373,-1359,-2406,-1180,-79,72,300,-17,12,227,180,64,47,133,522,723,-262,-2444,-2720,-4062,-4203,-4234,-4208,-3794,-3727,-2556,-1411,-577,-54,-640,-181,-304,-3173,-5756,-5463,-5565,-5691,-5837,-5913,-5929,-5691,-4158,-4743,-5072,-4769,-4727,-4147,-3903,-3151,-3267,-3498,-4813,-7248,-6319,-4523,-5364,-5687,-5896,-5838,-5874,-5909,-5916,-5828,-5111,-5158,-5344,-5516,-5663,-5033,-4743,-5138,-4371,-4748,-4078,-4762,-4450,-4451,-4592,-5298,-5435,-5670,-5699,-5360,-5635,-5734,-5758,-5681,-5277,-5353,-4655,-4924,-5442,-5521,-5533,-5400,-5486,-5482,-5563,-5398,-5167,-5125,-4878,-5158,-5288,-5360,-5441,-5500,-5174,-4979,-5388,-5351,-5127,-5321,-5310,-5312,-5488,-5395,-5287,-5285,-5329,-5363,-5325,-5208,-4968,-4896,-4864,-4898,-4887,-4960,-4833,-4948,-4903,-4800,-4780,-4798,-4866,-4992,-4897,-4806,-4758,-4768,-4625,-4601,-4492,-4461,-4324,-4222,-4249,-4185,-4153,-4082,-4176,-4177,-4164,-4023,-3956,-3701,-3731,-3839,-3646,-3463,-3329,-3113,-2922,-3077,-3293,-3357,-3389,-3523,-3913,-4112,-4175,-4100,-4076,-3995,-4224,-3737,-2476,-762,-29,224,418,176,-4,-344,-1224,-2597,-3232,-3394,-3827,-3721,-3703,-3817,-2774,-1224,-495,-302,-1157,-2109,-3207,-4114,-4286,-3508,-1838,-2913,-1491,-2175,-1620,-1981,-3878,-4467,-4582,-4785,-4909,-4987,-4944,-4979,-4934,-4802,-4679,-4602,-3913,-3737,-3916,-4055,-4656,-4862,-4981,-5207,-5445,-5596,-5909,-5991,-5852,-5885,-5755,-5716,-5592,-5556,-5355,-5236,-5023,-4897,-4882,-4860,-4779,-4759,-4554,-3991,-1044,8,35,46,99,262,287,373,432,452,401,327,320,342,291,303,298,303
256,289,282,252,276,412,592,648,581,562,464,463,416,301,285,312,383,450,591,555,542,560,718,764,555,651,669,654,672,723,688,639,482,518,569,1070,1907,2253,2238,2090,742,550,455,-245,-886,-1482,-1788,-1372,-1092,-645,-54,-384,-1299,-1795,-2910,-3636,-4065,-3930,-4195,-4381,-4384,-4354,-4331,-4293,-4266,-4251,-4257,-4292,-4322,-4347,-3810,-1881,-1538,-1912,-954,97,751,379,330,7,-1933,-3497,-3538,-3471,-3417,-3379,-3328,-3273,-3234,-3167,-3180,-2888,-446,-1341,-2277,-2745,-1196,-110,49,112,-42,-54,-20,281,75,9,68,447,412,-225,-1962,-3310,-4209,-4222,-2785,-3212,-1135,-1327,-1614,-110,-62,-311,-31,-69,-28,-879,-6552,-5633,-5573,-5731,-5831,-5902,-5870,-5750,-4807,-4609,-4918,-4888,-4354,-4067,-3590,-5178,-6578,-6591,-6254,-5349,-5227,-5367,-5660,-5874,-5979,-5844,-5774,-5783,-5771,-5712,-4577,-5405,-5559,-5244,-4993,-3664,-3261,-4593,-4215,-3412,-2482,-3165,-4554,-3833,-4433,-4778,-5208,-5547,-5550,-5625,-5638,-5680,-5894,-5970,-5962,-5504,-5083,-5234,-5574,-5388,-5459,-5330,-5239,-5203,-5140,-5126,-5143,-4994,-4590,-5015,-4935,-5016,-5327,-5246,-5045,-5119,-5393,-5316,-5063,-5228,-5137,-5128,-5297,-5229,-5255,-5334,-5349,-5371,-5215,-5254,-5103,-4922,-4876,-4855,-4890,-4937,-4960,-4974,-4999,-4875,-4768,-4836,-4927,-4841,-4854,-4808,-4803,-4769,-4659,-4597,-4552,-4469,-4425,-4364,-4242,-4215,-4185,-4204,-4169,-4201,-4124,-4015,-3833,-3830,-3654,-3628,-3648,-3538,-3317,-3096,-2947,-3134,-3372,-3381,-3503,-3764,-4124,-4192,-4115,-4071,-3982,-3824,-3763,-3699,-3819,-3896,-2097,-12,111,340,-260,-1956,-2557,-3206,-3073,-3557,-3527,-3231,-2539,-1414,-433,107,16,33,-17,-669,-1502,-879,-1543,-765,-418,-646,-491,-1095,-1747,-1862,-3645,-4392,-4561,-4724,-4823,-4944,-4863,-4868,-4847,-4757,-4693,-4544,-4223,-3465,-3308,-3547,-3647,-4437,-4943,-4888,-5047,-5174,-5401,-5534,-5574,-5484,-5300,-5598,-5655,-5592,-5542,-5396,-5227,-5199,-5110,-5005,-4988,-4903,-4688,-4111,-1662,-7,5,100,323,741,630,457,431,423,405,367,417,355,306,321,307,251
187,417,327,320,277,323,468,623,831,707,469,375,540,662,445,416,393,431,381,464,455,472,529,565,533,517,495,490,484,499,521,495,452,503,1074,1327,1685,2340,2134,2362,843,750,923,513,-249,57,331,1268,1011,637,256,-428,-3203,-4035,-4238,-3644,-3644,-3716,-3544,-4408,-4401,-4411,-4412,-4377,-4363,-4357,-4352,-4395,-4423,-4434,-3988,-2544,-1554,-1834,-2130,-563,324,470,150,6,-1006,-3559,-3622,-3544,-3501,-3493,-3456,-3424,-3366,-3280,-3318,-2702,-616,-2454,-3138,-2657,-908,-122,83,-4,-57,-67,-55,19,36,3,3,26,-31,-288,-1738,-3544,-3455,-3028,-1582,-1959,-1044,-1240,-547,-49,-499,-722,-340,41,-158,-144,-5980,-5869,-5612,-5773,-5860,-5902,-5882,-5669,-4351,-4954,-4872,-4771,-4573,-4250,-3770,-5203,-5192,-5106,-3768,-3766,-4852,-5003,-5207,-5628,-5761,-5773,-5672,-5649,-5638,-5544,-4906,-5481,-5489,-5161,-3577,-3707,-2973,-4333,-4558,-4437,-3768,-4515,-4549,-3717,-3931,-4704,-5173,-5307,-5393,-5402,-5413,-5442,-5750,-6001,-5983,-5962,-5931,-5773,-5594,-5409,-5659,-5587,-5063,-4228,-3752,-4793,-4491,-4672,-3903,-4523,-4604,-4800,-5146,-5278,-4538,-5030,-5255,-5196,-5085,-5147,-5068,-5195,-5078,-5024,-5195,-5170,-5209,-5128,-5159,-5166,-5111,-5051,-4992,-4943,-4827,-4836,-4864,-4896,-4868,-4859,-4800,-4867,-5021,-4863,-4744,-4718,-4753,-4729,-4714,-4662,-4535,-4382,-4385,-4405,-4288,-4236,-4231,-4189,-4151,-4078,-3890,-3811,-3419,-3339,-3066,-3418,-3521,-3577,-3340,-3094,-3104,-3283,-3442,-3602,-3789,-3847,-4067,-4075,-3995,-3923,-3861,-3777,-3739,-3757,-3580,-3244,-3351,-1929,194,454,-182,-1872,-2877,-3307,-3172,-2931,-3122,-2691,-444,161,1262,547,59,542,518,355,92,180,-358,-55,319,7,-13,-176,-1261,-2224,-3579,-3973,-4177,-4455,-4686,-4819,-4893,-4833,-4862,-4914,-4783,-4769,-4767,-4385,-4302,-4218,-3763,-3860,-4356,-4567,-4619,-4904,-4943,-5242,-5475,-5594,-5465,-5671,-5656,-5574,-5584,-5548,-5259,-5216,-5363,-5006,-5047,-4930,-4653,-4147,-1397,-74,-15,59,305,550,615,449,434,432,426,405,394,327,326,325,201,207
234,401,331,374,231,219,279,587,868,650,340,342,400,333,371,386,363,401,381,397,416,493,629,847,666,716,553,484,452,404,366,372,371,502,1413,1737,1798,2041,2434,2060,1076,1524,1597,1436,1172,1051,926,813,890,709,154,-1204,-4156,-4590,-4683,-4169,-3925,-3452,-3388,-3913,-4092,-4182,-4448,-4460,-4455,-4451,-4402,-4409,-4500,-4545,-4265,-3290,-1979,-2137,-2476,-1265,145,338,31,-18,-72,-3261,-3699,-3642,-3624,-3612,-3566,-3517,-3457,-3375,-3292,-2697,-901,-2395,-2531,-2428,-519,-150,132,25,-37,-71,-63,-36,-9,24,-8,-30,-68,-961,-2544,-2372,-1994,-2131,-2060,-1711,-1736,-1241,-297,-1502,-1571,-2898,-1392,-174,-794,-301,-4128,-6353,-5675,-5824,-5971,-6054,-5904,-5253,-4031,-4181,-4406,-3758,-4354,-2806,-2275,-2517,-3556,-4681,-4124,-3542,-4076,-4045,-3326,-4892,-5177,-5245,-5186,-5425,-5468,-5405,-5379,-5272,-5234,-5117,-3849,-4045,-3726,-4642,-4757,-4054,-3870,-3367,-4289,-2841,-3437,-4733,-5053,-5213,-5371,-5424,-5539,-5548,-5616,-5844,-5999,-6005,-5963,-5956,-5875,-5893,-5856,-5679,-4830,-4860,-4557,-5018,-4976,-4692,-3797,-3781,-4084,-4369,-4890,-4856,-4393,-4599,-5082,-5214,-5207,-5124,-5079,-5144,-5001,-4890,-5016,-5200,-5189,-5150,-5179,-5163,-5092,-5068,-5066,-4922,-4926,-4814,-4800,-4795,-4800,-4799,-4816,-4893,-5010,-4929,-4725,-4664,-4614,-4647,-4638,-4627,-4541,-4411,-4326,-4369,-4304,-4212,-4209,-4094,-4161,-3925,-3806,-3790,-3481,-3533,-3645,-3232,-3377,-3362,-3229,-2930,-3129,-3373,-3476,-3615,-3766,-4013,-3988,-3861,-3802,-3685,-3616,-3682,-3696,-3678,-3479,-3390,-3131,-3334,-1496,12,1140,-235,-1755,-1122,-530,-658,-1854,-1284,94,48,452,114,60,1122,550,255,304,272,127,231,140,16,12,-30,-539,-2200,-3110,-3515,-3648,-3669,-4550,-4771,-4805,-4756,-4750,-4748,-4762,-4786,-4795,-4697,-4512,-4065,-3633,-3493,-3719,-3894,-4117,-4507,-4562,-4844,-4931,-4974,-4953,-4980,-5189,-5242,-5324,-5224,-5066,-5094,-5019,-4697,-4294,-4324,-4311,-3800,-1695,-569,-134,-31,90,141,436,533,585,533,451,418,352,259,304,274,174,208
314,260,236,363,334,277,224,309,247,200,210,543,494,434,444,461,432,382,320,444,508,651,810,906,883,699,551,493,429,404,366,368,372,445,1053,1755,1919,2062,2217,1869,1560,1190,1140,1171,992,829,785,693,525,378,-767,-3712,-4887,-4876,-4879,-4273,-4067,-3790,-3223,-3506,-3545,-4275,-4437,-4489,-4468,-4485,-4510,-4564,-4587,-4592,-4152,-3667,-2269,-2177,-2653,-1486,-308,131,-631,-708,87,-1540,-3792,-3761,-3739,-3711,-3667,-3618,-3572,-3397,-3266,-3382,-1373,-1224,-2348,-2138,-543,-235,107,219,-19,-63,-79,-41,-17,-13,-23,-45,-93,-853,-1221,-1547,-1680,-1670,-1568,-2026,-1644,-75,-1167,-2278,-3240,-4388,-2749,-207,-136,338,-1643,-6681,-5718,-5767,-5910,-5795,-5019,-4769,-3483,-3915,-3395,-2952,-3895,-3066,-3553,-3101,-2211,-3024,-3581,-2405,-2994,-2568,-1269,-2532,-2811,-3336,-3488,-5066,-4883,-4731,-4980,-4980,-5054,-5039,-4267,-4303,-4272,-4481,-4962,-4523,-4379,-3435,-3774,-3919,-3712,-3090,-4926,-5165,-5374,-5496,-5550,-5528,-5750,-5957,-5778,-5753,-5551,-5460,-5706,-5917,-5914,-5706,-5397,-5308,-5203,-5017,-5184,-5028,-5049,-4233,-4218,-4175,-4649,-4454,-4223,-4665,-5002,-5217,-5227,-4909,-4999,-5132,-5063,-4975,-4918,-5098,-5127,-5149,-5164,-5040,-5093,-5108,-5117,-5067,-5010,-4874,-4750,-4708,-4764,-4767,-4764,-4823,-4954,-4940,-4765,-4670,-4585,-4610,-4603,-4497,-4448,-4431,-4343,-4259,-4145,-4071,-3914,-3999,-3948,-3971,-3912,-3956,-3879,-3838,-3924,-3712,-3559,-3401,-3283,-3130,-3146,-3135,-3375,-3346,-3645,-3789,-3787,-3731,-3654,-3732,-3690,-3585,-3546,-3441,-3410,-3351,-3223,-3157,-2524,-1926,-359,407,447,185,-10,127,65,64,99,106,759,331,1653,771,115,74,87,110,142,146,85,129,87,33,-12,-670,-1850,-2697,-2909,-1803,-2093,-3801,-4632,-4523,-4521,-4493,-4530,-4577,-4620,-4743,-4703,-4568,-4173,-3838,-3670,-3751,-3826,-4151,-4402,-4551,-4470,-4696,-4777,-4795,-4797,-4912,-5000,-4988,-4947,-4993,-4898,-4660,-3980,-3798,-4269,-4445,-4334,-3796,-3353,-902,-7,78,299,427,631,610,412,319,294,262,295,241,131,130
307,162,138,170,312,376,261,207,174,245,550,858,1016,1027,986,743,509,446,456,474,597,733,755,777,792,775,597,490,476,418,366,366,370,408,726,1922,2061,1845,2060,2497,1796,1071,838,902,859,635,547,505,428,36,-2293,-4730,-5078,-5083,-5138,-4380,-4440,-3935,-3416,-3241,-3336,-3749,-4081,-4378,-4491,-4548,-4565,-4613,-4607,-4594,-4074,-3780,-1948,-2185,-2699,-2086,-1259,-303,-1834,-1198,393,-210,-3489,-3881,-3818,-3793,-3775,-3724,-3700,-3426,-3028,-3567,-2788,-795,-2258,-1659,-870,-512,-63,110,4,-44,-63,-55,-40,-39,-37,-56,-116,-554,-1327,-1529,-1833,-1512,-1682,-2243,-577,-53,-922,-3360,-4190,-3639,-143,-848,447,441,-684,-6594,-5476,-5734,-5603,-4700,-4500,-4264,-3006,-4647,-3908,-4669,-3419,-2784,-2754,-3003,-3447,-2442,-2661,-2360,-2010,-2179,-1685,-2436,-4402,-2437,-3623,-4614,-4309,-2877,-4585,-4381,-4284,-4819,-4555,-4616,-4522,-4455,-4927,-4778,-4673,-4618,-3085,-3833,-3993,-2997,-4348,-5072,-5305,-5486,-5498,-5397,-5570,-5659,-5799,-5609,-4327,-3671,-5023,-5861,-5951,-5819,-5623,-5507,-5485,-5106,-5025,-5070,-4792,-4645,-4156,-4360,-3871,-4047,-4242,-4410,-4639,-4950,-5189,-5017,-5071,-5202,-5113,-5047,-4714,-4681,-4973,-5170,-5030,-5000,-5018,-5081,-5065,-5053,-5041,-4923,-4727,-4634,-4628,-4626,-4624,-4706,-4729,-4771,-4547,-4555,-4507,-4511,-4563,-4361,-4422,-4262,-4168,-4082,-3998,-4105,-4000,-4105,-3967,-3942,-3909,-3982,-3850,-3891,-3856,-3867,-3825,-3810,-3638,-3456,-3169,-3064,-3284,-3304,-3335,-3312,-3452,-3485,-3662,-3742,-3647,-3590,-3593,-3518,-3474,-3445,-3358,-3001,-2164,-1481,-1485,-1648,-178,-73,-915,-1125,193,600,797,562,901,1606,293,103,99,82,74,183,240,387,365,359,265,152,140,3,-74,-581,-1017,-503,-577,-1856,-4109,-4276,-4250,-4247,-4286,-4301,-4402,-4627,-4793,-4730,-4704,-4594,-4469,-4147,-3824,-3552,-3607,-3545,-3839,-4239,-4570,-4392,-4362,-4398,-4242,-4546,-4652,-4573,-4321,-4077,-3269,-3690,-4016,-4709,-4770,-4740,-4463,-3335,-631,-92,118,358,365,443,410,266,227,182,218,275,216,122
115,46,-12,-89,20,133,178,177,228,639,1144,1089,915,901,1012,993,671,545,520,556,579,620,667,690,785,806,686,593,485,398,369,367,371,586,867,1514,1632,1768,2184,2262,1540,849,519,667,649,606,390,275,138,-625,-3213,-5018,-5108,-5118,-4631,-4711,-4333,-4266,-3789,-3291,-3214,-3388,-3849,-4206,-4430,-4481,-4544,-4516,-4333,-4397,-3988,-3828,-1826,-1682,-2630,-2240,-2023,-2268,-2734,-1717,362,-419,-3678,-3974,-3914,-3858,-3823,-3850,-3840,-3368,-2788,-3502,-3756,-1183,-2098,-1403,-1200,-675,-117,-24,165,124,-34,-60,-63,-51,-50,-64,-107,-586,-1383,-1665,-1511,-1921,-2271,-515,249,39,-349,-2804,-2545,-360,-2150,-3953,294,-228,-2004,-6930,-5366,-5566,-5585,-5270,-4042,-3417,-4847,-4619,-4475,-4398,-4128,-3938,-3966,-3220,-2543,-3038,-3085,-3689,-3626,-3831,-3397,-2949,-4472,-4190,-3617,-3933,-4455,-4240,-4112,-3378,-3174,-4235,-4301,-4654,-4658,-4673,-4703,-4697,-4672,-4640,-4675,-3960,-4576,-3453,-3900,-4883,-5272,-5589,-5881,-5485,-5621,-5597,-5606,-5380,-4015,-4335,-5321,-5736,-5549,-5874,-5816,-5835,-5602,-5338,-4996,-4717,-4712,-4582,-4543,-3222,-2423,-3253,-3895,-4070,-4142,-4771,-4974,-4795,-4851,-5041,-5168,-5148,-4730,-4632,-4723,-5128,-5048,-5133,-4992,-4969,-4893,-4945,-4938,-4865,-4798,-4653,-4560,-4493,-4439,-4365,-4302,-4481,-4395,-4380,-4378,-4374,-4488,-4441,-4406,-4203,-4195,-4077,-3974,-4123,-4147,-4206,-4143,-4022,-4080,-4011,-4017,-3809,-3721,-3918,-3970,-3861,-3739,-3515,-3265,-3078,-3300,-3444,-3500,-3475,-3322,-3641,-3675,-3661,-3628,-3618,-3645,-3633,-3567,-3296,-3048,-2606,-1982,-1693,-2280,-2988,-1692,-3032,-3216,-3455,-988,1161,1823,443,1566,2429,237,128,146,99,131,831,1006,493,567,572,374,288,149,56,5,-30,-27,-30,-45,-739,-3053,-3707,-3881,-3923,-3994,-4093,-4196,-4346,-4560,-4571,-4614,-4568,-4558,-4477,-4264,-3890,-3727,-3558,-3218,-3341,-3777,-3963,-3979,-3952,-4220,-4330,-4043,-3992,-3988,-3606,-3371,-3674,-3747,-4705,-4824,-4811,-4778,-4604,-4115,-3107,-1025,123,194,240,242,242,204,120,170,210,229,235
-1039,-2201,-2872,-2481,-673,22,76,125,278,653,1110,729,712,760,868,683,737,636,534,518,537,580,646,647,689,764,766,716,645,603,560,451,477,600,754,837,1192,1664,1878,1375,885,562,443,366,369,413,237,174,-38,-2317,-4486,-4994,-5117,-4910,-4854,-4897,-4558,-4275,-4018,-3697,-3486,-3202,-3599,-3928,-4150,-4221,-4023,-4125,-4039,-4041,-3978,-3805,-2082,-1102,-2643,-2340,-2497,-2641,-3563,-3752,-2954,-3367,-4106,-4051,-4020,-3976,-3953,-3955,-3883,-3232,-3005,-3737,-3982,-1420,-1564,-192,-655,-299,-93,-68,215,599,185,-42,-71,-71,-69,-72,-91,-116,-380,-636,-502,-1821,-560,121,694,342,56,-374,-532,-2803,-4548,-4824,-4386,-1853,-2577,-6071,-5577,-5453,-5443,-5016,-3531,-4134,-4786,-4825,-4583,-4540,-4501,-4236,-3914,-3693,-2528,-3462,-3926,-3724,-4268,-4069,-3836,-3684,-4395,-4703,-4530,-2514,-3723,-4008,-3803,-2921,-3494,-4173,-4299,-4472,-4188,-4387,-4656,-4662,-4677,-4476,-4313,-3960,-4619,-4384,-3660,-4652,-5113,-5383,-5650,-5791,-5822,-5859,-5784,-5455,-5094,-5317,-5417,-5558,-5225,-5600,-5767,-5836,-5603,-5317,-5401,-5127,-4648,-4545,-4388,-3784,-2556,-3072,-3793,-4123,-4276,-4420,-4697,-4647,-4785,-4901,-5056,-5145,-4927,-4820,-4832,-5015,-4913,-5043,-4968,-4861,-4712,-4709,-4728,-4738,-4593,-4597,-4492,-4431,-4410,-4210,-4154,-4216,-4250,-4342,-4296,-4291,-4413,-4393,-4334,-4379,-4280,-4211,-4116,-4144,-4276,-4223,-4192,-4044,-4041,-4047,-4078,-3979,-3959,-3925,-3894,-3817,-3709,-3436,-3184,-3169,-3356,-3346,-3425,-3408,-3342,-3529,-3591,-3586,-3574,-3592,-3630,-3529,-3323,-2798,-2153,-1734,-2031,-2874,-3164,-2923,-2515,-3144,-3268,-3265,-1340,927,1744,1246,2564,1174,190,185,235,167,418,905,971,669,635,966,1292,886,307,143,63,92,73,101,68,-18,-341,-2147,-3236,-3334,-3593,-3762,-3991,-3721,-4180,-4702,-4745,-4690,-4599,-4581,-4383,-4043,-3871,-3465,-3088,-2953,-3493,-3839,-3932,-3830,-4163,-4334,-4279,-4313,-4232,-3838,-3439,-3111,-3830,-4810,-4822,-4832,-4829,-4782,-4591,-4116,-3334,-1450,-27,200,225,176,93,37,51,96,87,0
-3899,-3860,-3900,-3101,-1375,-97,15,5,39,306,459,571,681,697,661,612,595,559,476,558,521,541,559,565,656,803,812,764,769,815,918,741,1025,1033,606,613,753,1269,1607,1067,819,526,299,430,364,231,164,56,-706,-2943,-4269,-4939,-4953,-4680,-4992,-4859,-4785,-4465,-4362,-4299,-3992,-3632,-3144,-3386,-3715,-3831,-3808,-3662,-3798,-3914,-3948,-3943,-2141,-898,-2608,-2461,-3113,-3023,-3694,-4258,-4286,-4246,-4186,-4137,-4094,-3974,-4071,-4044,-3999,-3636,-3032,-3625,-4274,-2107,-1918,-382,822,526,-43,-65,29,538,492,8,-67,-80,-87,-85,-75,-123,-113,-92,-79,-71,205,714,531,302,-117,-1499,-3692,-4756,-4887,-4935,-5006,-2117,-2136,-2575,-5665,-5186,-4443,-4411,-3414,-3557,-4901,-4856,-4643,-4646,-4427,-4255,-4037,-3114,-2725,-3519,-4043,-4230,-4364,-4200,-3878,-4831,-4948,-4765,-4635,-3718,-3555,-3393,-3461,-3126,-3548,-3919,-4100,-3863,-4259,-4556,-4604,-4611,-4622,-4606,-4065,-4645,-4627,-4601,-3642,-4541,-5008,-5070,-5132,-5911,-5721,-5583,-5485,-5470,-5393,-5106,-4969,-5252,-5365,-5371,-5516,-5553,-5564,-5515,-5500,-5436,-5153,-5021,-4662,-4480,-3905,-2950,-2941,-4068,-4342,-4441,-4555,-4691,-4829,-4919,-4965,-5018,-4946,-4758,-4912,-4975,-4953,-4841,-4642,-4476,-4438,-4404,-4438,-4422,-4395,-4536,-4496,-4435,-4443,-4346,-4403,-4410,-4421,-4403,-4347,-4369,-4395,-4437,-4313,-4414,-4399,-4329,-4259,-4285,-4257,-4197,-4179,-3991,-3973,-3956,-3994,-3965,-3956,-3960,-3852,-3810,-3676,-3440,-3360,-3172,-3334,-3437,-3451,-3464,-3436,-3469,-3488,-3466,-3419,-3349,-3243,-3126,-2965,-2510,-1961,-1429,-2505,-3033,-3143,-3232,-2608,-2050,-3152,-3443,-755,1096,1843,1907,1195,223,203,211,223,162,341,450,836,907,786,717,778,640,351,173,181,232,194,224,162,130,-19,-113,-1478,-2046,-2712,-3406,-3902,-3989,-3565,-4217,-4309,-4467,-4609,-4559,-4289,-4028,-3894,-3708,-3243,-3084,-3371,-3693,-3875,-3974,-3985,-4273,-4275,-4185,-4217,-3845,-3557,-3532,-4553,-4819,-4839,-4836,-4821,-4797,-4666,-4386,-3994,-3303,-1343,-623,-154,-1054,-1948,-2526,-1926,-731,-549,-2691
-4529,-4336,-4166,-3768,-2892,-1415,-621,-806,-425,-214,376,731,672,665,625,569,599,501,376,514,516,545,559,545,577,671,758,739,820,922,1128,847,1092,1266,1086,546,661,701,837,850,666,401,244,399,356,182,86,-1007,-2877,-3578,-4629,-4967,-4892,-4997,-4990,-4865,-4800,-4673,-4584,-4589,-4109,-3886,-3497,-3328,-3356,-3317,-3122,-3339,-3801,-3758,-3959,-3994,-2213,-767,-2561,-2915,-3508,-3564,-3460,-4266,-4318,-4298,-4249,-4207,-4138,-4157,-4183,-4154,-4090,-3293,-2504,-3968,-4276,-3789,-1415,-881,-317,895,317,-15,-51,271,155,5,-58,-76,-72,-66,-67,-81,-72,-48,-29,206,534,902,349,19,-1429,-3753,-4564,-4941,-4999,-4913,-4666,-1922,-2104,-2365,-3544,-4454,-4460,-3851,-3925,-3851,-4792,-4704,-4645,-4629,-4429,-4341,-3995,-2812,-3114,-3945,-4384,-4428,-4446,-4344,-4392,-4985,-4983,-4782,-4658,-3887,-2982,-2726,-3029,-3092,-3376,-3554,-3690,-3538,-4161,-4523,-4466,-4549,-4556,-4550,-4530,-4583,-4582,-4596,-4135,-4324,-5103,-5121,-4845,-5504,-5477,-5441,-5391,-5362,-5224,-4927,-4867,-5096,-5176,-5281,-5346,-5421,-5512,-5510,-5504,-5502,-5334,-5239,-5165,-4633,-4586,-4223,-2828,-3391,-4337,-4523,-4589,-4742,-4821,-4801,-4948,-5037,-5041,-4921,-4852,-4718,-4626,-4587,-4441,-4427,-4412,-4320,-4402,-4319,-4375,-4353,-4381,-4392,-4408,-4410,-4453,-4506,-4464,-4462,-4471,-4486,-4481,-4488,-4432,-4458,-4444,-4430,-4216,-4197,-4174,-4092,-4004,-3950,-3879,-3889,-3913,-3903,-3882,-3854,-3832,-3743,-3587,-3450,-3401,-3215,-3260,-3387,-3416,-3461,-3454,-3438,-3258,-3094,-2963,-2829,-2660,-2478,-2270,-1811,-1807,-2267,-3074,-3031,-2999,-2774,-2089,-2526,-3153,-2570,-202,1736,1352,1615,318,224,197,165,171,181,134,242,513,826,596,368,194,142,240,165,210,505,236,219,189,156,68,-26,-59,-525,-1687,-3040,-3774,-4099,-4089,-3962,-3727,-4089,-4352,-4405,-4362,-4302,-3912,-3767,-3533,-3306,-3063,-3193,-3434,-3706,-3851,-4245,-4402,-4406,-4375,-4220,-4184,-4385,-4691,-4829,-4834,-4819,-4795,-4658,-4600,-4480,-4335,-4238,-4294,-3881,-3762,-4047,-4039,-4088,-3988,-3969,-4872,-4740
-4658,-4504,-4329,-4038,-3729,-3203,-2458,-2510,-1973,-820,492,676,639,584,539,471,453,432,373,353,400,446,432,424,468,574,637,730,913,1082,1476,868,1081,1162,1289,838,781,686,585,542,388,317,216,209,161,30,-1243,-3115,-3942,-4364,-4735,-5023,-5038,-5011,-4996,-4956,-4768,-4624,-4584,-4546,-4413,-4105,-3799,-3598,-3347,-2962,-2751,-3225,-3815,-3909,-3979,-3913,-2858,-1157,-2289,-3155,-3850,-4085,-3651,-4238,-4384,-4394,-4350,-4324,-4291,-4264,-4193,-4257,-3968,-2824,-2557,-3968,-4252,-4456,-3681,-1874,-663,-120,952,356,-15,22,111,119,-43,-51,-62,-73,-52,-37,-47,41,293,396,829,834,493,88,-1750,-4402,-5008,-5191,-5195,-5096,-4040,-1772,-1854,-2483,-1576,-3852,-3872,-3534,-4005,-4028,-4032,-4240,-4266,-4490,-4393,-4278,-3856,-2863,-3148,-4231,-4454,-4549,-4501,-4476,-4626,-4457,-5217,-4826,-4532,-3728,-3043,-2757,-2690,-2819,-2973,-3034,-3495,-3859,-4199,-4387,-4429,-4318,-4441,-4436,-4413,-4446,-4515,-4632,-4306,-4375,-4974,-5185,-4821,-5260,-5356,-5364,-5341,-5305,-5153,-5227,-5238,-4554,-4764,-5218,-5298,-5337,-5433,-5441,-5433,-5455,-5098,-4917,-5236,-5049,-5028,-4708,-3834,-2841,-3795,-4510,-4688,-4778,-4849,-4921,-4805,-4741,-4706,-4671,-4633,-4677,-4673,-4591,-4469,-4442,-4461,-4455,-4436,-4226,-4363,-4301,-4376,-4347,-4403,-4412,-4455,-4464,-4446,-4447,-4454,-4484,-4547,-4532,-4517,-4515,-4448,-4399,-4223,-4199,-4078,-4028,-4016,-3928,-3856,-3846,-3850,-3841,-3816,-3800,-3756,-3604,-3461,-3508,-3389,-3214,-3266,-3178,-3133,-2995,-2917,-2872,-2745,-2638,-2600,-2473,-2329,-2219,-1973,-2053,-2464,-2917,-2992,-3056,-3225,-2684,-2844,-3073,-2840,-422,870,2389,1390,691,403,259,252,225,163,183,152,115,423,545,698,312,193,214,224,169,163,354,342,303,222,193,122,-11,-26,-57,-791,-2896,-3685,-4060,-4207,-4275,-4258,-4353,-4396,-4339,-4218,-3886,-3914,-3948,-3545,-3389,-3020,-2905,-3260,-3677,-3972,-4005,-4054,-4357,-4448,-4537,-4597,-4598,-4851,-4938,-4890,-4912,-4898,-4723,-4773,-4675,-4625,-4668,-4647,-4818,-4838,-4730,-4709,-4722,-4890,-5068,-5019,-4899
-4826,-4638,-4390,-4203,-3897,-3618,-3245,-2301,-2193,-295,622,639,473,536,566,530,403,372,366,354,360,360,367,390,447,522,599,698,883,1048,1069,1099,1082,1104,1664,1503,1215,810,318,217,126,104,92,66,-318,-1857,-3320,-4088,-4530,-4676,-4980,-5048,-5037,-5034,-4969,-4806,-4364,-4592,-4588,-4587,-4480,-4371,-4036,-3914,-3800,-3508,-3041,-3287,-3800,-3936,-3896,-3954,-3260,-1755,-2337,-3343,-3948,-4419,-4443,-4410,-4423,-4439,-4419,-4411,-4410,-4393,-4378,-4347,-4015,-3023,-3167,-4272,-4321,-4327,-4461,-4617,-3147,-284,-14,447,24,15,-15,18,-23,-55,-60,-55,-40,110,135,228,377,530,899,788,590,289,-30,-2983,-2542,-1802,-2912,-3402,-1822,-1414,-1915,-898,-528,-3726,-3872,-3622,-3730,-4025,-4166,-4278,-4089,-4249,-4307,-4224,-3770,-2937,-3134,-3940,-4354,-4482,-4508,-4425,-4912,-4040,-5263,-4864,-4268,-3700,-2690,-2547,-2402,-2504,-2693,-2863,-3272,-3678,-4173,-4325,-4386,-4419,-4374,-4388,-4276,-4393,-4459,-4559,-3836,-3568,-4636,-4917,-4590,-4993,-5294,-5347,-5283,-5244,-5308,-5320,-5283,-5193,-5329,-5154,-5233,-5411,-5457,-5414,-5403,-5417,-5181,-5154,-5146,-5094,-4771,-4998,-4463,-3712,-2544,-4090,-4635,-4654,-4596,-4501,-4179,-4168,-4487,-4604,-4368,-4477,-4529,-4352,-4420,-4420,-4429,-4449,-4511,-4410,-4402,-4368,-4310,-4397,-4346,-4405,-4448,-4453,-4445,-4447,-4444,-4485,-4605,-4612,-4603,-4557,-4464,-4367,-4204,-4134,-4046,-3959,-3958,-3941,-3917,-3888,-3853,-3827,-3772,-3663,-3670,-3575,-3495,-3496,-3368,-3185,-3246,-3305,-3354,-3391,-3079,-3046,-2959,-2904,-2722,-2451,-1989,-2039,-2262,-2561,-2630,-2797,-2857,-3123,-3368,-3162,-3078,-2940,-827,417,1901,1589,507,310,365,339,349,221,136,109,111,248,949,537,255,211,172,182,301,278,242,270,294,249,208,172,128,11,-6,-40,-58,-1348,-3260,-3905,-4207,-4262,-4317,-4286,-4146,-4126,-4227,-3999,-3991,-3805,-3541,-3242,-2873,-2804,-3308,-3520,-3604,-3820,-3553,-3449,-3817,-4478,-4664,-4736,-4777,-4889,-4979,-5097,-5125,-4883,-4879,-4787,-4616,-4701,-4755,-4837,-4946,-5004,-5013,-5001,-5004,-5021,-5010,-4951
-4835,-4685,-4457,-4253,-4023,-3645,-2677,-2800,-1627,22,437,487,435,553,524,434,389,365,369,394,395,395,395,396,397,473,623,795,971,1419,1181,1163,1169,1148,1549,1777,1768,1278,479,232,38,27,2,-500,-2339,-3445,-3903,-4362,-4677,-4812,-5033,-5034,-5016,-4994,-4812,-4175,-4122,-4610,-4552,-4529,-4597,-4506,-4244,-4283,-3933,-3756,-3265,-3216,-3777,-3943,-3902,-4025,-3279,-1348,-2940,-4030,-4374,-4626,-4661,-4650,-4586,-4514,-4392,-4388,-4492,-4492,-4505,-4501,-4421,-3504,-4147,-4463,-4452,-4428,-4405,-4353,-4793,-1255,-193,444,333,62,0,-4,-14,-40,-54,-43,-33,135,180,168,296,627,668,530,232,28,-866,-1793,3,-85,-497,-278,-995,-2217,-2302,-356,-360,-871,-1593,-2622,-3898,-3988,-4030,-4611,-4297,-4187,-3942,-3491,-3287,-3102,-3007,-3419,-3698,-3835,-4252,-4471,-4760,-4655,-5157,-5221,-4513,-3797,-2848,-2576,-2176,-2197,-2401,-2696,-2961,-3755,-4206,-4315,-4348,-4378,-4371,-4375,-4376,-4373,-4338,-4628,-4441,-3097,-4481,-4587,-5033,-5080,-5244,-5298,-5032,-5325,-5343,-4717,-5269,-5300,-5232,-5102,-5298,-5488,-5489,-5504,-5423,-5275,-5139,-4742,-4886,-4945,-4998,-4967,-4744,-4350,-4078,-3854,-4364,-4632,-4520,-4279,-3844,-4130,-4197,-4378,-4458,-4416,-4477,-4433,-4434,-4430,-4436,-4436,-4464,-4487,-4481,-4447,-4317,-4154,-4432,-4455,-4504,-4493,-4451,-4435,-4440,-4466,-4474,-4508,-4516,-4450,-4356,-4195,-4181,-4152,-4096,-4015,-4001,-4030,-4025,-3969,-3902,-3822,-3720,-3659,-3696,-3651,-3608,-3517,-3418,-3189,-3260,-3284,-3346,-3417,-3387,-3387,-3359,-3294,-3078,-2833,-2411,-1511,-2014,-2359,-2566,-2728,-2876,-3239,-3255,-2987,-2674,-1663,280,2159,1706,302,256,269,289,261,221,178,115,92,90,183,378,149,105,94,94,125,167,144,172,175,288,292,232,133,69,5,-6,-14,-40,-42,-903,-2337,-3790,-3959,-4001,-4024,-4248,-4320,-4301,-4349,-4253,-4137,-3951,-3800,-3741,-3577,-3396,-3493,-3580,-3742,-3651,-3514,-3766,-3879,-4182,-4629,-4713,-4668,-4148,-3765,-3773,-4064,-4320,-4399,-4515,-4526,-4542,-4884,-5025,-5056,-5057,-5051,-5014,-5017,-5007,-4953
-4601,-4460,-4390,-4225,-4004,-3549,-2859,-2649,-1042,34,131,231,271,438,472,385,308,336,341,339,366,366,375,414,425,502,706,898,1434,1385,1438,1218,1138,1154,1431,2220,2204,1355,501,210,118,46,-319,-2508,-3383,-3956,-4359,-4611,-4768,-4889,-5027,-4980,-4971,-4842,-4733,-4044,-4547,-4564,-4508,-4565,-4560,-4510,-4310,-4272,-4020,-3820,-3258,-2980,-3428,-3685,-3871,-3970,-3403,-1986,-3474,-4394,-4559,-4660,-4686,-4660,-4606,-4623,-4534,-4550,-4509,-4573,-4580,-4571,-4368,-3124,-3846,-4554,-4556,-4543,-4532,-4489,-4583,-3652,-396,-459,487,123,51,-5,-10,-33,-45,-47,-32,1,119,212,491,402,238,107,66,-41,-2222,-996,-1105,-1196,-868,-2234,-3195,-2321,-2624,-297,-872,-953,-83,-1062,-770,-1651,-1831,-1838,-3649,-4155,-4065,-3442,-3158,-3257,-3407,-3569,-3766,-3289,-3329,-3718,-3880,-4734,-5233,-5237,-4744,-3994,-2936,-2385,-2031,-1988,-2179,-2570,-2979,-3779,-4303,-4451,-4460,-4404,-4151,-4237,-4355,-4028,-4341,-4413,-4721,-4493,-3419,-4763,-4994,-5070,-5131,-5190,-5282,-5367,-5442,-5138,-4901,-5174,-4963,-5383,-5377,-5501,-5505,-5506,-5175,-5151,-5252,-5214,-5088,-5092,-5056,-4920,-4830,-4906,-4553,-4209,-4106,-4513,-4623,-4641,-4309,-4323,-4383,-4426,-4443,-4385,-4337,-4440,-4443,-4453,-4494,-4484,-4449,-4467,-4487,-4479,-4421,-4262,-4308,-4437,-4508,-4509,-4488,-4520,-4548,-4573,-4597,-4610,-4537,-4437,-4323,-4194,-4183,-4194,-4204,-4166,-4137,-4166,-4164,-4079,-3985,-3870,-3783,-3755,-3752,-3726,-3641,-3550,-3380,-3158,-3322,-3322,-3266,-3300,-3370,-3462,-3526,-3468,-3289,-3206,-1362,-516,-928,-1735,-2220,-2529,-2710,-2609,-2321,-1597,-1747,-187,769,3111,776,213,168,114,146,138,98,146,122,114,61,61,38,31,31,31,67,181,137,82,105,123,167,201,173,124,15,-3,2,-3,-9,-26,-31,-49,-2376,-3203,-3660,-3765,-3696,-4318,-4449,-4523,-4507,-4264,-4229,-4273,-4402,-4236,-4007,-4000,-3930,-3539,-3512,-3107,-3700,-4045,-4174,-4153,-4335,-4453,-4031,-3355,-3363,-3986,-4016,-4107,-4226,-4295,-4595,-4645,-4863,-4938,-5007,-5009,-5006,-5014,-4961,-4856
-4430,-4283,-4288,-4276,-3935,-3354,-3313,-2858,-1010,21,185,474,554,464,543,426,291,329,335,339,366,389,423,439,474,506,752,981,1562,1949,1456,1202,1131,1186,1481,1833,1486,1231,520,142,50,-166,-1997,-3204,-3708,-4255,-4607,-4741,-4848,-4959,-5022,-5001,-4980,-4558,-4490,-4485,-4482,-4468,-4531,-4463,-4574,-4605,-4573,-4482,-4069,-3810,-3564,-2980,-3112,-3804,-4017,-3982,-3512,-2514,-3975,-4663,-4684,-4672,-4656,-4629,-4600,-4679,-4684,-4668,-4615,-4656,-4621,-4593,-4217,-3126,-4304,-4582,-4598,-4597,-4580,-4410,-4214,-5139,-1679,-990,-37,515,81,26,-7,-7,-19,-35,-31,-11,93,222,84,45,42,191,44,-541,-2231,190,670,497,-196,-348,-1198,-1703,-2381,-1034,-767,-516,-116,11,279,854,-564,-612,-289,-547,-1431,-3102,-3325,-3438,-3266,-2404,-1054,-1644,-1542,-1742,-1618,-1501,-2809,-4435,-5109,-3280,-3043,-2123,-1917,-1873,-2055,-2385,-2949,-3416,-3972,-4247,-4420,-4399,-4404,-4199,-4186,-4086,-4291,-4165,-4318,-4627,-3843,-3648,-3849,-5079,-4990,-5181,-5284,-5394,-5512,-5318,-4750,-4652,-5090,-5439,-5519,-5504,-5498,-5983,-5557,-5463,-5414,-5139,-5090,-5058,-5030,-5045,-5082,-5005,-4853,-4639,-4278,-4548,-4676,-4588,-4569,-4600,-4609,-4600,-4556,-4510,-4498,-4470,-4466,-4493,-4555,-4477,-4441,-4487,-4462,-4465,-4471,-4440,-4347,-4446,-4483,-4496,-4513,-4558,-4611,-4611,-4605,-4607,-4574,-4444,-4357,-4262,-4238,-4232,-4241,-4251,-4239,-4220,-4189,-4111,-4043,-3953,-3879,-3818,-3800,-3781,-3658,-3584,-3356,-3167,-3288,-3326,-3407,-3409,-3412,-3405,-3380,-3398,-3389,-3275,-3116,-1706,-1497,-1887,-2206,-2400,-2442,-2037,-1761,-1686,-1842,141,905,2626,375,201,140,92,92,92,91,95,119,113,61,57,30,30,30,30,51,103,103,71,61,59,81,125,88,27,-2,2,-1,14,31,19,-2,-9,-226,-1983,-3055,-3459,-3612,-3112,-3572,-4146,-4096,-4258,-4331,-4342,-4397,-4337,-4439,-4472,-4445,-4439,-4357,-4539,-4546,-4605,-4535,-4578,-4546,-4203,-4017,-3788,-3929,-3968,-3338,-3206,-3630,-3954,-4114,-4366,-4694,-4953,-5001,-5003,-5003,-4976,-4778,-4639
-4483,-4118,-4167,-4459,-4280,-4007,-3761,-3554,-1979,-72,112,248,537,608,659,529,326,337,340,362,384,485,482,572,566,550,769,958,1657,1732,1443,1245,1199,1238,1453,1442,1272,1202,454,131,-36,-1532,-3077,-3556,-3944,-4388,-4667,-4810,-4892,-4998,-5028,-4997,-4877,-4279,-4221,-4012,-4369,-4304,-4316,-4195,-4393,-4577,-4449,-4215,-4225,-3901,-3702,-3074,-3398,-3786,-4100,-4195,-3815,-2867,-4237,-4740,-4859,-4829,-4803,-4774,-4730,-4804,-4287,-4466,-4714,-4721,-4656,-4510,-4340,-3511,-4140,-4572,-4639,-4649,-4508,-4473,-4669,-4749,-4632,-1735,-850,551,214,34,1,0,2,-20,-29,-30,10,36,28,21,18,176,0,-258,-1469,1127,631,309,-1717,-2666,-4015,-3842,-2881,-3075,-2014,-883,-592,-232,71,85,-120,-1163,98,221,219,-79,-1004,-2330,-3002,-2118,-1561,-1235,-423,-751,-1845,-1676,-809,-1457,-2397,-3227,-2875,-2160,-1818,-1786,-1973,-2230,-2936,-2765,-3637,-3831,-4369,-4183,-4181,-3804,-3812,-3907,-4079,-4036,-4050,-4398,-4693,-4271,-4157,-4886,-4998,-5284,-5374,-5553,-5714,-5530,-5313,-5369,-5330,-5401,-4877,-5118,-5264,-5429,-5470,-5461,-5221,-5040,-5092,-5048,-5042,-5045,-5052,-5028,-5052,-4867,-4616,-4816,-4972,-4609,-4527,-4661,-4673,-4646,-4598,-4542,-4527,-4515,-4499,-4500,-4522,-4474,-4383,-4487,-4486,-4499,-4499,-4499,-4500,-4494,-4507,-4554,-4574,-4596,-4596,-4610,-4593,-4600,-4554,-4475,-4370,-4308,-4292,-4270,-4239,-4244,-4249,-4231,-4193,-4114,-4054,-4004,-3933,-3859,-3812,-3743,-3634,-3550,-3295,-3251,-3312,-3378,-3490,-3498,-3481,-3478,-3431,-3458,-3474,-3463,-3298,-3225,-3232,-3214,-3181,-3159,-3070,-2861,-2715,-2769,-2495,8,1294,2364,395,208,125,121,121,117,90,106,91,91,72,57,30,30,30,30,30,54,53,41,40,41,58,56,65,49,3,29,24,41,67,68,27,1,-3,-23,-310,-257,-895,-2087,-3011,-3598,-3762,-3990,-4228,-4377,-4527,-4776,-5054,-5021,-5054,-5197,-5251,-5181,-5230,-5287,-5225,-4950,-4898,-4805,-4539,-4161,-4061,-3987,-3483,-3205,-3348,-3811,-4049,-4218,-4486,-4687,-4875,-4904,-4897,-4813,-4583,-4478
-4377,-4352,-4639,-4675,-4716,-4595,-4376,-4171,-3338,-1294,-63,189,238,499,542,584,429,329,382,413,409,450,507,576,616,569,760,1018,1924,1578,1391,1231,1230,1192,1348,1446,1290,1099,616,124,-538,-2301,-3363,-3755,-4207,-4554,-4722,-4819,-4791,-4979,-5012,-5000,-4484,-3368,-2675,-2152,-3496,-4137,-4038,-3757,-3665,-4198,-4175,-4098,-3973,-3846,-3652,-3292,-3466,-3821,-3982,-4008,-3700,-3427,-4873,-4991,-5001,-4990,-4998,-4984,-4979,-5026,-4222,-4343,-4781,-4769,-4704,-4626,-4041,-3364,-4090,-4607,-4763,-4644,-4623,-4575,-4820,-4630,-4768,-4710,-1158,-360,480,158,24,1,-13,-20,-26,-38,-20,-10,-4,-6,49,102,-1,-141,-1213,292,-302,714,-200,-3431,-4872,-4745,-510,-1352,-655,-1459,-569,-993,-672,113,298,518,1626,1482,1256,491,396,193,-40,-636,-1115,-2145,-1950,-1333,-1758,-2217,-2279,-1419,-1111,-2124,-2285,-2080,-1811,-1791,-1887,-1995,-2476,-2481,-3136,-3364,-3566,-3757,-3783,-3598,-3569,-3588,-3862,-3991,-4088,-4311,-4813,-4951,-4834,-4984,-5229,-5432,-5527,-5751,-5773,-5759,-5840,-5146,-5255,-5248,-4522,-4764,-5403,-5213,-5453,-5215,-4439,-4688,-5122,-5053,-4991,-4989,-5005,-5044,-5036,-4923,-4672,-4968,-5068,-4916,-4810,-4801,-4706,-4691,-4652,-4645,-4617,-4574,-4504,-4499,-4488,-4502,-4500,-4500,-4501,-4503,-4519,-4528,-4530,-4541,-4583,-4610,-4611,-4595,-4580,-4560,-4556,-4550,-4497,-4416,-4367,-4305,-4329,-4289,-4211,-4237,-4248,-4233,-4194,-4115,-4034,-4004,-3902,-3806,-3729,-3627,-3462,-3316,-3276,-3264,-3400,-3481,-3570,-3584,-3625,-3582,-3574,-3615,-3620,-3637,-3659,-3455,-3427,-3464,-3407,-3338,-3385,-3276,-3052,-3264,-2454,161,2069,1246,285,181,122,92,91,87,65,105,90,90,72,56,30,30,30,30,30,42,32,40,60,62,68,84,92,86,80,75,72,94,150,154,34,35,72,46,255,167,86,-203,-1355,-2642,-2849,-3603,-3394,-3938,-4432,-4715,-4942,-5063,-5223,-5372,-5487,-5476,-5477,-5424,-5099,-4982,-4966,-4763,-4604,-4411,-4026,-3788,-3522,-3203,-3199,-3716,-3983,-4023,-4136,-4317,-4610,-4704,-4762,-4721,-4506,-4409
-4632,-4773,-5023,-4686,-4622,-4843,-4594,-4238,-3876,-3244,-1552,-109,205,336,424,482,574,439,439,447,429,446,499,548,605,593,630,811,1185,1102,1147,1128,1213,1180,1398,1503,1343,929,559,-133,-1219,-2459,-3536,-4101,-4423,-4617,-4685,-4791,-4873,-4948,-5004,-4897,-4359,-2929,-593,-24,-1037,-3434,-3947,-4002,-3650,-3698,-4062,-4013,-4028,-3959,-3808,-3440,-3066,-3516,-3909,-3737,-2037,-2872,-4904,-5005,-5006,-4997,-4996,-4959,-4963,-4985,-4129,-4657,-4926,-4901,-4936,-4998,-4288,-3729,-4651,-4749,-4954,-4628,-4818,-4822,-4964,-4521,-4676,-4981,-4239,-1005,-528,514,192,16,-57,-93,-91,-64,-44,-48,-43,-40,-11,-10,-34,-804,-1625,-212,-623,-555,44,-3109,-4882,-4312,-3597,-3480,-3358,-3234,-4122,-2118,-1165,-1482,-1108,254,400,871,1125,1292,1131,853,490,235,86,-706,-1659,-1630,-1521,-1525,-2107,-865,-322,-2665,-2172,-2001,-1641,-1707,-1762,-1584,-2212,-2311,-2728,-2520,-2692,-3369,-3299,-3312,-3350,-3386,-3587,-3861,-4097,-4583,-5078,-4782,-4785,-5338,-5491,-5573,-5636,-5795,-5697,-5634,-5586,-4806,-5523,-4819,-4939,-5420,-5298,-5436,-5497,-5086,-3902,-3343,-4445,-4808,-4877,-4969,-4934,-5054,-5044,-5044,-4939,-4958,-5116,-5000,-5004,-4908,-4619,-4825,-4941,-4598,-4576,-4551,-4503,-4505,-4479,-4422,-4436,-4468,-4510,-4509,-4523,-4541,-4576,-4581,-4610,-4610,-4591,-4550,-4533,-4500,-4363,-4440,-4390,-4359,-4348,-4221,-4243,-4319,-4256,-4246,-4237,-4224,-4174,-4067,-3973,-3755,-3599,-3525,-3401,-3257,-3242,-3173,-3293,-3427,-3463,-3603,-3674,-3695,-3759,-3599,-3677,-3769,-3812,-3812,-3880,-3816,-3738,-3699,-3682,-3604,-3597,-3581,-3616,-3752,-1938,550,2062,963,276,127,103,91,91,86,49,73,66,61,61,42,30,30,30,30,30,30,48,61,80,83,132,138,132,142,203,215,115,184,204,181,99,96,86,124,354,310,264,84,-49,-1053,-1364,-3361,-3837,-4241,-4511,-4791,-4984,-5226,-5384,-5510,-5593,-5599,-5595,-5490,-5138,-4998,-4950,-4669,-4567,-4088,-3966,-3682,-3488,-3034,-3141,-3509,-3838,-3993,-4169,-4370,-4387,-4603,-4751,-4722,-4725,-4506
-4498,-5052,-5133,-5048,-5020,-4848,-4640,-4284,-3883,-3294,-2322,-596,91,287,512,689,609,626,580,563,594,599,632,611,666,633,679,737,1016,967,1278,1118,1192,1297,1278,1159,1284,916,242,-429,-1743,-2816,-3589,-4064,-4339,-4498,-4611,-4669,-4805,-4532,-4882,-4849,-4351,-1906,-3160,-1820,-605,-1620,-3467,-4039,-4015,-3797,-4060,-4076,-4002,-3896,-3813,-3440,-3212,-3501,-3776,-2165,-1044,-3455,-4963,-5023,-5013,-5031,-5048,-5027,-5027,-5017,-4857,-5010,-5011,-5013,-5021,-5020,-4528,-3588,-4713,-4991,-4904,-4946,-5028,-4833,-4971,-4870,-5123,-5104,-5495,-3327,-1134,-1571,67,16,-66,-132,-142,-91,-48,-54,-48,-53,-31,-38,-71,-312,-509,4,-722,-1690,-535,-1450,-2283,-3529,-3661,-2872,-4251,-4595,-4558,-5405,-395,-2227,-565,-43,-53,-33,-2,9,347,1162,1985,2219,1510,557,-568,-915,-605,-388,-176,-177,-3626,-3728,-1174,-2126,-1995,-2162,-1946,-1017,-1966,-2295,-3071,-3264,-2705,-2712,-2870,-3037,-3024,-3149,-3538,-3991,-4632,-5056,-5077,-4986,-4809,-5329,-5484,-5203,-5514,-5474,-5597,-5799,-5565,-5598,-5234,-5681,-5586,-4858,-5256,-5537,-5407,-4585,-3716,-3480,-4314,-4403,-4915,-4950,-4942,-5061,-5081,-5058,-4719,-5025,-5017,-4716,-5020,-4994,-4906,-4950,-4679,-4486,-4530,-4509,-4500,-4520,-4452,-4272,-4274,-4305,-4450,-4491,-4514,-4575,-4608,-4604,-4612,-4614,-4605,-4595,-4574,-4481,-4367,-4453,-4396,-4355,-4352,-4310,-4196,-4314,-4269,-4214,-4203,-4213,-4140,-4019,-3858,-3554,-3444,-3338,-3251,-3028,-3326,-3499,-3533,-3594,-3653,-3771,-3804,-3815,-3839,-3839,-3829,-3886,-3974,-4012,-4024,-3978,-3903,-3906,-3927,-3857,-3932,-3918,-3701,-4065,-2206,135,1858,1320,1239,233,128,122,127,111,97,92,88,75,61,48,31,31,31,30,30,30,35,75,94,112,149,167,256,252,319,229,135,143,239,241,168,161,131,144,410,393,252,143,112,139,32,-2806,-4397,-4596,-4815,-5043,-5189,-5429,-5533,-5589,-5600,-5599,-5601,-5369,-4996,-4999,-4780,-4600,-4414,-4018,-3879,-3728,-3601,-3215,-2881,-3390,-3671,-3788,-4148,-4421,-4730,-4962,-5039,-4837,-4520,-4089
-4131,-5321,-5530,-5009,-5162,-4914,-4667,-4355,-4024,-3629,-2621,-644,40,419,654,880,689,787,732,714,679,717,787,740,765,751,674,672,1050,1087,1137,1219,1162,1365,1176,969,1093,566,133,-363,-1703,-2886,-3591,-4018,-4257,-4400,-4474,-4594,-4531,-3573,-4618,-4668,-3513,-3259,-3546,-3282,-2216,-1595,-2097,-3820,-4001,-4060,-4093,-4065,-4044,-3860,-3836,-3351,-3257,-3681,-3411,-788,-787,-3907,-5024,-5022,-5024,-5045,-5080,-5023,-5017,-5026,-5039,-5031,-5022,-5026,-5027,-5084,-4215,-3241,-4431,-5028,-4961,-4994,-5076,-5011,-4976,-5064,-5175,-4934,-5094,-5598,-3296,-1802,-1390,-202,320,286,40,-38,-18,-9,-39,-38,-46,-39,-258,-380,-231,-910,-1435,-2007,-1931,-3040,-3052,-3466,-4281,-4585,-4496,-3227,-5044,-3453,-1089,-1300,-5,-34,-45,-41,-13,0,0,23,578,1184,1286,1729,844,41,-2433,-2486,-2858,-5433,-5203,-5821,-3961,-33,-1527,-2842,-3014,-2519,-2098,-2378,-3224,-3581,-3682,-3649,-3558,-3402,-3545,-3742,-4189,-4745,-5233,-5117,-5042,-5035,-4519,-4522,-5357,-5374,-5189,-5525,-5599,-5681,-5730,-5465,-5187,-5551,-5466,-5178,-5484,-5511,-5139,-4591,-3792,-3935,-4807,-4354,-4640,-4903,-5095,-5415,-5193,-5177,-5179,-5056,-5053,-4551,-4983,-5026,-5008,-5011,-4974,-4868,-4688,-4547,-4478,-4312,-4358,-4191,-4115,-4230,-4292,-4380,-4518,-4587,-4602,-4604,-4595,-4626,-4623,-4606,-4527,-4394,-4433,-4527,-4531,-4384,-4357,-4355,-4257,-4286,-4251,-4204,-4144,-4142,-4054,-3923,-3644,-3518,-3391,-3198,-3090,-3119,-3430,-3608,-3763,-3941,-3993,-3912,-3910,-3824,-3788,-3885,-3881,-3953,-3993,-4045,-4072,-4074,-4044,-4046,-4019,-4005,-4055,-4051,-4023,-4262,-3391,-100,1254,2858,1942,639,280,219,201,180,166,126,101,89,89,82,61,61,61,48,41,40,70,120,152,189,172,213,306,273,334,288,264,226,237,380,298,228,183,193,408,482,332,328,262,468,162,-1780,-4111,-4704,-5021,-5256,-5421,-5541,-5595,-5601,-5601,-5611,-5643,-5422,-5032,-5002,-4947,-4703,-4549,-4211,-3975,-3713,-3544,-3179,-3117,-3486,-3853,-4088,-4450,-4472,-4592,-4865,-4684,-4383,-4242,-3919
-4861,-5273,-5714,-5390,-5228,-5009,-4763,-4496,-4273,-4052,-3239,-1466,-355,405,701,1040,745,792,939,917,856,846,890,897,942,879,804,735,1152,1429,1097,1223,1234,1371,1209,1245,1025,486,166,-82,-1604,-2934,-3617,-3981,-4157,-4292,-4365,-4383,-4392,-3528,-3968,-4469,-3957,-3843,-3865,-3629,-2550,-2652,-1875,-2331,-3515,-3706,-3751,-4014,-4062,-3879,-3682,-3248,-3091,-3852,-2788,-1037,-2004,-4348,-4998,-5023,-5037,-5036,-5039,-5041,-5046,-5009,-5000,-5002,-4834,-4910,-5027,-5157,-4434,-3937,-5177,-4965,-4992,-5035,-5026,-5011,-4976,-5046,-5077,-5116,-5413,-5442,-5635,-4598,-3397,-2089,-1204,76,187,306,295,180,290,116,-92,-693,-769,-650,-1440,-3508,-3218,-2439,-2466,-3346,-3798,-3673,-2793,-3146,-3048,-3139,-1915,-459,-720,-72,-37,-60,-48,-28,-3,0,0,6,61,31,41,538,1357,-691,-3496,-5274,-4769,-4717,-4275,-4563,-4942,-2893,-828,-493,-940,-2292,-2672,-1941,-2369,-3428,-3598,-3618,-3775,-3980,-4179,-4644,-4943,-5014,-5130,-5043,-5061,-5024,-4864,-4423,-4065,-5065,-4985,-5378,-5501,-5514,-5637,-5374,-5164,-5334,-4984,-4806,-5137,-5110,-4649,-4307,-3930,-4166,-4081,-4001,-4305,-4626,-5292,-5467,-5205,-5113,-5073,-5057,-5038,-4874,-4865,-5128,-5117,-5282,-5230,-5074,-4858,-4614,-4486,-4247,-4032,-3306,-3873,-4160,-4252,-4357,-4497,-4574,-4607,-4602,-4616,-4619,-4604,-4601,-4570,-4493,-4491,-4517,-4560,-4484,-4408,-4351,-4329,-4296,-4284,-4254,-4093,-4058,-3863,-3735,-3561,-3481,-3324,-3160,-3065,-3304,-3498,-3699,-3825,-4078,-4117,-4055,-3987,-3972,-3963,-3942,-3961,-4013,-4073,-4107,-4108,-4082,-4077,-4154,-4152,-4187,-4204,-4235,-4204,-4142,-4584,-564,456,2942,2328,562,378,290,244,180,175,161,164,135,84,74,61,61,66,65,97,92,153,112,266,356,297,300,297,294,310,332,227,266,224,297,219,258,212,211,314,582,526,479,557,529,181,-988,-4214,-4746,-5060,-5367,-5472,-5564,-5599,-5602,-5607,-5612,-5603,-5340,-4948,-4870,-4666,-4266,-3876,-3714,-3800,-3461,-3210,-3178,-3414,-3608,-3584,-3942,-4326,-4575,-4671,-4677,-4659,-4440,-4214,-4684
-5079,-5306,-5592,-5448,-5289,-5148,-4890,-4694,-4495,-4276,-3683,-2382,-1224,108,620,1029,851,673,1110,1045,981,841,894,954,1037,881,793,1292,1096,1113,1049,1575,1228,1397,1327,1276,440,374,302,-299,-2082,-3067,-3608,-3923,-4055,-4190,-3508,-3468,-4466,-4569,-4082,-3737,-4261,-3726,-3990,-3682,-3392,-3474,-2675,-1315,-1627,-2838,-3310,-3874,-3995,-3881,-3724,-3300,-3563,-3786,-2188,-2025,-3112,-4672,-5007,-5018,-5036,-5041,-5019,-5045,-5052,-4972,-4998,-5003,-4582,-5071,-5156,-5000,-3945,-4298,-5199,-4902,-5085,-5089,-4975,-5087,-5009,-4983,-5111,-5357,-5094,-5442,-5411,-5650,-5997,-4658,-2820,-2706,-2470,-1797,-793,-429,-383,-372,-187,-283,-192,-34,-321,-877,-629,-1317,-1185,-1546,-1604,-1103,-937,-1291,-1680,-1246,-809,-825,-339,-167,-132,-75,-52,-32,-20,-18,-10,20,10,-5,-50,-264,469,1137,-126,-544,-610,-1870,-3377,-3932,-2741,-3706,-2941,-812,-1128,-707,-922,-2877,-2408,-2851,-3273,-3971,-4402,-3997,-4192,-4528,-4895,-4987,-4978,-5015,-4965,-5010,-4909,-4555,-4405,-4335,-5015,-5235,-5246,-5251,-5276,-4996,-4696,-3887,-4428,-4699,-4522,-4543,-4375,-3976,-3759,-4045,-3634,-3575,-3945,-4177,-5011,-5245,-4933,-5128,-5129,-5024,-5051,-4934,-5012,-4891,-5016,-5130,-5308,-5207,-5014,-4720,-4574,-4291,-3938,-2425,-3074,-4056,-4181,-4275,-4486,-4546,-4581,-4600,-4604,-4610,-4609,-4593,-4557,-4479,-4418,-4373,-4307,-4247,-4210,-4216,-4213,-4204,-4258,-4231,-4077,-4034,-3746,-3576,-3471,-3341,-3197,-3012,-3148,-3374,-3579,-3741,-3895,-4196,-4175,-4241,-4175,-4048,-4047,-3667,-3922,-4024,-4096,-4112,-4111,-4166,-4185,-4234,-4253,-4234,-4309,-4388,-4360,-4345,-4969,-2227,-43,2009,3604,1477,498,230,276,202,215,211,183,150,116,110,81,88,86,106,166,158,157,155,215,429,442,396,302,293,369,337,197,246,343,433,385,306,378,329,470,432,377,411,563,649,193,-982,-4024,-4880,-4745,-5314,-5505,-5575,-5604,-5602,-5604,-5588,-5597,-5598,-5154,-4877,-4554,-4179,-3903,-3725,-3537,-2812,-2479,-2850,-3073,-3559,-3637,-4106,-4328,-4538,-4747,-4715,-4569,-4629,-4797,-5154
-5585,-5667,-5627,-5487,-5358,-5266,-5071,-4847,-4682,-4414,-3774,-2364,-1170,82,438,1027,1026,942,1060,1158,1035,1000,950,1020,955,867,1128,1317,1008,1191,1553,1462,1429,1370,1667,943,760,493,412,-190,-2379,-2866,-3252,-3670,-3868,-4023,-3385,-3744,-4405,-4472,-2831,-2293,-4046,-4349,-3979,-3768,-3457,-3857,-3149,-1533,-843,-1542,-2515,-3543,-3846,-3839,-3441,-3505,-3683,-3685,-2503,-2674,-3651,-4759,-5027,-5025,-5022,-5016,-5018,-5045,-5059,-4823,-4942,-4907,-4714,-5163,-5006,-4907,-3980,-4570,-5276,-4991,-5231,-5144,-5415,-4829,-5040,-5138,-5232,-5422,-5309,-5501,-5476,-5513,-5223,-5456,-5770,-4542,-3096,-2424,-2324,-2841,-2787,-2751,-3606,-3263,-2985,-2625,-1858,-304,-533,-2378,-3216,-2308,-102,-565,-1577,-1579,-967,-675,-426,-198,-168,-137,-103,-90,-64,-51,-50,-48,-35,-6,0,-8,-158,-1409,-1366,287,337,37,-181,-1230,-1261,-2033,-3070,-3565,-3740,-3814,-3165,-1384,-263,-1225,-3904,-3679,-3490,-2253,-2734,-2973,-3816,-4358,-4380,-4766,-5027,-5044,-5021,-5042,-5041,-4816,-4618,-4340,-4252,-4715,-4887,-4849,-4655,-4168,-4108,-3895,-3335,-4211,-4606,-4284,-3937,-3812,-3438,-4012,-3412,-2999,-3952,-4298,-4919,-4941,-4721,-4927,-5244,-5432,-5117,-4652,-4888,-4441,-4589,-4728,-4872,-4867,-5043,-4846,-4603,-4435,-4255,-3367,-2523,-3063,-4104,-4216,-4423,-4460,-4507,-4522,-4505,-4483,-4449,-4366,-4244,-4144,-4019,-4002,-3977,-3957,-3960,-4009,-4039,-4079,-4160,-4099,-3949,-3757,-3600,-3452,-3269,-2996,-3011,-3211,-3386,-3505,-3663,-3798,-4154,-4350,-4253,-4237,-4231,-4149,-4016,-3850,-3833,-3766,-3934,-4134,-4072,-4116,-4230,-4442,-4561,-4426,-4425,-4484,-4466,-4449,-4618,-4655,-619,505,4042,2787,1247,352,344,292,226,201,180,159,138,134,145,130,167,200,238,244,264,244,279,288,400,434,355,291,385,218,217,232,343,485,476,417,500,446,477,436,414,334,228,247,-259,-3002,-4600,-4944,-5001,-4758,-5477,-5573,-5601,-5609,-5609,-5575,-5483,-5553,-5263,-4978,-4615,-4486,-4181,-3973,-3869,-3216,-2466,-2845,-3380,-3447,-3551,-3780,-4138,-4324,-4305,-4445,-4243,-4881,-5114,-5260
-5552,-5617,-5588,-5458,-5422,-5366,-5200,-4976,-4777,-4448,-4008,-2572,-1577,-148,923,1417,1214,1173,1187,1252,1133,1046,1038,1123,1141,1356,1204,1223,1108,1216,1254,1271,1279,1412,828,936,860,633,425,228,-566,-2363,-2865,-3365,-3611,-3792,-3805,-3842,-4083,-3605,-2476,-3372,-4453,-4604,-4231,-3973,-3476,-4050,-3651,-2625,-240,-32,-989,-3408,-3793,-3709,-3210,-3447,-3738,-3756,-3354,-2960,-4127,-4959,-5205,-5014,-5042,-5086,-5091,-5095,-5046,-5038,-5014,-4994,-4745,-4960,-5000,-5031,-3978,-4635,-5276,-5189,-5134,-5408,-5234,-5036,-5100,-5176,-5202,-4522,-4898,-5279,-5085,-5430,-4526,-4062,-5725,-6063,-5864,-5351,-5417,-4912,-4049,-3240,-3235,-3683,-3820,-3934,-3583,-2515,-844,-1044,-1481,-695,-1202,-1274,-462,-85,-46,-73,-90,-78,-68,-75,-75,-63,-47,-49,-50,-50,-43,-16,-6,-32,-768,-1227,-1859,-1991,-1147,-540,-258,-768,-1622,-2715,-2899,-3008,-3272,-2325,-2809,-3124,-3663,-1543,-2327,-3370,-3515,-1796,-1376,-2883,-3459,-3742,-4079,-4001,-4224,-4713,-4773,-4664,-4829,-4633,-4549,-3383,-3202,-3864,-4069,-3839,-3699,-4113,-4287,-4155,-4425,-4853,-4799,-4298,-4121,-4201,-4153,-4171,-3425,-2724,-2987,-4181,-4941,-5141,-5098,-5112,-5118,-5040,-5112,-4636,-4913,-4620,-4516,-4759,-4698,-4729,-4787,-4828,-4618,-4547,-4445,-4236,-3784,-2750,-3823,-4118,-4142,-4150,-4165,-4148,-4239,-4261,-4200,-4020,-3991,-3999,-3964,-3912,-3914,-3891,-3894,-3897,-3892,-3928,-3945,-3857,-3705,-3562,-3478,-3356,-3211,-3007,-3139,-3357,-3547,-3666,-3810,-3972,-4257,-4341,-4302,-4223,-4274,-4153,-3974,-3815,-3805,-3702,-3750,-3980,-3977,-4064,-4225,-4375,-4424,-4405,-4407,-4499,-4498,-4503,-4462,-4943,-3308,-427,2515,4151,1796,778,349,331,302,286,215,180,155,157,186,347,336,287,300,300,316,281,344,388,329,434,308,311,325,216,279,314,405,626,651,529,505,449,664,616,417,353,173,-159,-2555,-4243,-4745,-4983,-5191,-5240,-5463,-5553,-5591,-5601,-5570,-5559,-5375,-5633,-5766,-5438,-4994,-4655,-4250,-3997,-3815,-3356,-2837,-2924,-3133,-3518,-3784,-4049,-4278,-4226,-4210,-4715,-4936,-5163,-5000,-5363
-5543,-5528,-5499,-5478,-5441,-5340,-5267,-5028,-4772,-4375,-3919,-3276,-1984,-490,1254,1564,1476,1190,1266,1323,1189,1101,1163,1284,1344,1409,1352,1212,1148,1159,1270,1368,1104,1202,722,721,596,425,310,364,-278,-1930,-2836,-2168,-3321,-3473,-3684,-3366,-3412,-2425,-3497,-4338,-4583,-4689,-4587,-4065,-4289,-4227,-4035,-3388,-1548,-120,-1724,-3508,-3757,-3438,-3404,-3466,-3566,-3816,-3172,-3606,-4595,-4970,-5011,-5044,-5231,-5177,-5103,-5082,-5026,-5003,-5009,-4671,-5014,-5244,-5081,-4921,-2818,-4495,-5070,-4868,-5582,-5382,-5190,-5093,-4339,-4723,-4875,-4448,-4765,-4775,-4836,-4673,-3967,-4786,-5395,-4977,-5088,-4650,-4606,-4180,-4044,-4717,-4767,-5689,-5628,-5746,-5404,-4784,-3068,-2454,-1513,-811,-377,-166,-87,-91,-68,-50,-6,-13,-3,-16,-30,-26,-18,-48,-57,-60,-55,-25,27,-12,-1517,-1780,-2188,-2779,-2722,-2601,-2644,-2227,-1700,-777,-1533,-2617,-2619,-2162,-3172,-2675,-2693,-4691,-5047,-5099,-4882,-4842,-1441,-2528,-2885,-2718,-2569,-3320,-3383,-2541,-3029,-2045,-3177,-3486,-2022,-2683,-1995,-2689,-3558,-3458,-4130,-4455,-4588,-4650,-4711,-4822,-4970,-4986,-5148,-5213,-4154,-4054,-3666,-2638,-2926,-4262,-5011,-5053,-5120,-5144,-5145,-5170,-5076,-4968,-4606,-4728,-4716,-4950,-4814,-4698,-4651,-4579,-4519,-4554,-4483,-4389,-4050,-3948,-4061,-4128,-4129,-4113,-4090,-4080,-4143,-4131,-4064,-4018,-4002,-3981,-3909,-3888,-3837,-3868,-3839,-3816,-3781,-3749,-3746,-3652,-3569,-3446,-3433,-3297,-3088,-2995,-3256,-3436,-3595,-3677,-3855,-4051,-4229,-4279,-4163,-4206,-4209,-4049,-3932,-3782,-3728,-3566,-3740,-3956,-4010,-4020,-4090,-4258,-4287,-4340,-4394,-4481,-4500,-4516,-4512,-4614,-5136,-2039,356,4056,3263,1105,1072,509,383,359,304,250,191,184,167,304,359,370,311,337,425,297,329,455,379,327,261,305,289,215,288,320,518,743,700,477,474,738,798,520,335,212,-142,-2534,-3842,-4417,-4653,-4850,-5157,-5246,-5421,-5502,-5579,-5599,-5600,-5611,-5612,-5580,-5427,-5058,-4813,-4603,-4416,-4010,-3631,-3242,-3110,-3266,-3611,-3723,-4021,-4396,-4457,-4491,-4458,-4707,-5151,-5273,-5007,-4868
-5500,-5401,-5421,-5442,-5439,-5413,-5287,-5015,-4695,-4240,-3778,-3170,-1827,93,1390,1671,1695,1353,1348,1255,1182,1123,1188,1335,1237,1274,1335,1282,1209,1181,1284,987,1179,1160,611,981,643,465,433,341,-394,-2293,-3202,-2445,-2497,-2696,-2849,-2359,-500,-392,-3298,-4260,-4617,-4616,-4624,-4328,-4340,-4260,-4141,-3812,-2248,-1670,-3408,-3821,-3659,-3207,-2916,-3390,-3745,-3793,-3649,-4203,-4815,-4990,-4993,-5084,-5175,-5120,-5086,-5007,-4962,-4987,-4817,-4353,-5016,-5090,-4800,-4893,-2838,-4814,-5013,-5319,-5673,-5502,-5048,-4026,-4176,-4687,-5014,-5427,-5333,-4210,-4454,-4924,-5293,-5215,-5001,-4615,-4444,-4220,-3978,-3859,-4189,-4912,-4895,-5161,-5421,-5524,-5375,-4446,-2858,-2666,-1174,-250,-109,-61,-60,-91,-90,-49,-4,4,20,108,22,20,2,-49,-61,-70,-59,-20,53,-81,-2781,-3009,-3367,-3924,-4069,-4251,-4426,-4457,-4474,-3908,-3549,-2442,-2047,-2385,-2739,-3220,-2017,-3606,-4269,-4470,-4261,-5374,-2986,-2177,-2877,-3072,-2994,-2879,-2055,-3150,-3005,-2908,-2739,-2789,-2876,-2278,-2077,-2558,-2575,-3166,-3523,-3434,-4188,-4628,-4630,-4646,-4993,-5066,-5308,-5493,-5342,-4791,-3721,-2703,-2791,-4500,-5034,-5048,-5096,-5095,-5056,-5094,-5053,-5028,-4770,-4552,-4733,-4792,-4891,-4765,-4629,-4618,-4745,-4709,-4458,-4245,-4090,-4110,-4106,-4056,-4133,-4142,-4137,-4140,-4110,-4074,-4017,-3986,-4001,-3974,-3968,-3937,-3892,-3817,-3778,-3731,-3684,-3620,-3552,-3480,-3471,-3274,-3353,-3217,-2999,-3059,-3358,-3470,-3604,-3733,-3826,-4061,-4253,-4247,-4146,-4159,-4094,-4009,-3935,-3815,-3605,-3606,-3725,-3918,-3993,-4054,-4047,-4054,-4089,-4217,-4395,-4520,-4654,-4760,-4736,-4591,-4782,-4182,-961,1867,4239,2897,1891,2220,1256,454,306,285,260,213,184,180,215,254,352,365,365,321,314,371,408,312,262,299,310,252,390,332,436,705,729,738,517,779,740,390,235,45,-1801,-3742,-4253,-4340,-4211,-4356,-4649,-5255,-5405,-5469,-5587,-5602,-5581,-5476,-5498,-5434,-5364,-5050,-4767,-4612,-4091,-3744,-3112,-2928,-3011,-3463,-3570,-3681,-4096,-4340,-4369,-3937,-3934,-4591,-5100,-5458,-5525,-5704
-5528,-5386,-5401,-5420,-5422,-5416,-5263,-4946,-4640,-4246,-3750,-3265,-968,832,1491,1655,1613,1398,1442,1271,1212,1113,1081,1123,1140,1218,1224,1165,1242,1345,1275,947,1095,1082,629,972,727,626,534,367,-374,-2373,-3234,-3501,-3509,-3153,-3327,-2147,197,387,-2271,-4009,-4545,-4448,-4591,-4227,-4282,-4030,-4044,-3871,-1521,-2190,-3614,-3817,-3578,-3247,-3254,-3394,-3658,-3935,-3954,-4522,-5013,-5141,-5111,-5069,-5262,-5120,-5057,-4917,-4874,-5003,-4680,-4255,-4917,-4769,-4189,-4064,-2519,-4997,-4921,-5390,-5331,-5483,-5682,-4376,-3820,-4858,-5258,-5619,-5856,-4711,-4823,-4797,-5664,-4895,-5221,-4913,-3872,-4392,-5395,-5280,-4986,-5231,-5499,-5538,-5567,-5581,-5538,-3931,-2375,-1880,-522,-257,-110,-62,-36,-54,-59,-27,37,72,169,215,86,36,-5,-51,-63,-70,-54,-4,91,-7,-2028,-2864,-2435,-3140,-4299,-4554,-4520,-4511,-4521,-4474,-3728,-2628,-2128,-3051,-3427,-2950,-3033,-3402,-3513,-3533,-2116,-2315,-3312,-1369,-2796,-3097,-3061,-2974,-3050,-2687,-2924,-2707,-2813,-2711,-2752,-2782,-2220,-2235,-3019,-3096,-4090,-3774,-4036,-2192,-3537,-4428,-4718,-5090,-5210,-5390,-5373,-5391,-4278,-3411,-3364,-4830,-5025,-4990,-5045,-5045,-5032,-5029,-5033,-4920,-4702,-4178,-3992,-4482,-4516,-4587,-4486,-4253,-4125,-4273,-4089,-4009,-4006,-4043,-4053,-4059,-4081,-4098,-4085,-4097,-4065,-3950,-3793,-3995,-3981,-3940,-3906,-3816,-3778,-3677,-3656,-3560,-3617,-3555,-3488,-3419,-3292,-3257,-3073,-3029,-3065,-3201,-3439,-3526,-3616,-3743,-3835,-3986,-4182,-4203,-4117,-4031,-3988,-3894,-3827,-3747,-3756,-3729,-3795,-3808,-3891,-3893,-3990,-4136,-4167,-4319,-4551,-4712,-4922,-4899,-4829,-4647,-4516,-4780,-3163,-23,3374,4015,3424,3979,3704,2296,971,465,231,213,213,214,228,237,252,384,548,446,372,340,415,392,344,386,298,312,560,483,644,684,733,616,494,756,704,511,245,-1026,-3456,-4165,-4424,-4549,-4585,-4613,-4968,-5203,-5084,-5246,-5541,-5584,-5566,-5489,-5498,-5356,-5010,-4935,-4656,-4431,-4002,-3765,-3384,-2978,-3177,-3410,-3616,-3772,-3597,-3951,-3979,-3668,-3928,-4498,-4837,-5420,-5354,-5488
-5282,-5372,-5405,-5432,-5425,-5414,-5246,-4925,-4631,-4219,-3532,-2835,5,1221,1417,1460,1513,1455,1372,1210,1138,1069,1039,1080,1116,1123,1149,1131,1089,933,994,1028,848,1175,948,742,662,572,486,347,-124,-2396,-3102,-3457,-3611,-3294,-2465,-558,993,735,-1481,-3893,-4468,-4631,-4571,-4259,-4313,-4144,-4105,-3831,-253,-1786,-3724,-3725,-3476,-3175,-2719,-3111,-3356,-3794,-4115,-4663,-4975,-5062,-5114,-5067,-5111,-5202,-5005,-4975,-5001,-5008,-4697,-4701,-4593,-3822,-2418,-2811,-2709,-5153,-4855,-5429,-5446,-5486,-5561,-5070,-4813,-4543,-5447,-5387,-5865,-5322,-5139,-5310,-5999,-5888,-5202,-5585,-4518,-4685,-5660,-5416,-4424,-4085,-5196,-5601,-5612,-5579,-5426,-3355,-2060,-1012,-211,-114,-66,35,119,94,-21,20,145,115,203,138,64,9,-3,-40,-61,-60,-52,-4,117,62,-38,-1194,-1999,-1561,-2216,-3473,-4171,-4527,-4529,-4516,-4495,-3146,-3504,-3767,-2860,-2830,-3196,-3519,-4154,-3940,-4031,-2636,-2700,-1529,-2597,-3043,-3022,-3016,-3043,-3022,-2995,-2985,-2969,-2595,-2268,-2192,-2462,-2094,-1754,-2121,-3468,-3797,-4785,-4374,-3332,-3040,-3711,-4756,-5095,-5331,-5431,-5495,-5370,-4329,-4631,-4978,-5005,-5009,-4985,-4884,-4840,-4776,-4756,-4688,-4540,-3854,-3239,-2832,-2781,-2896,-2560,-3005,-3926,-3836,-3209,-3176,-3537,-3845,-4039,-4031,-4007,-4033,-4097,-4094,-4066,-3976,-4015,-4002,-3959,-3872,-3825,-3800,-3790,-3719,-3680,-3612,-3605,-3567,-3419,-3337,-3227,-3140,-3039,-2977,-3261,-3426,-3457,-3556,-3619,-3718,-3797,-3904,-3979,-4175,-4096,-3809,-3886,-3729,-3643,-3498,-3652,-3744,-3658,-3865,-3899,-3980,-4251,-4304,-4477,-4554,-4671,-4823,-4890,-4854,-4842,-4712,-4504,-4307,-4457,-1917,888,3565,4277,4481,4267,4335,3802,1367,384,218,213,237,220,249,238,393,541,521,346,296,432,588,567,463,300,381,595,698,756,700,759,555,535,671,611,580,146,-1625,-3754,-4312,-4491,-4596,-4393,-4476,-4640,-4987,-5191,-5166,-5388,-5427,-5601,-5603,-5581,-5489,-5350,-4893,-4731,-4601,-4261,-3823,-3479,-3153,-3074,-3344,-3409,-3617,-3547,-3788,-4169,-4247,-4373,-4601,-4978,-5196,-5249,-5365
-5458,-5399,-5402,-5435,-5427,-5399,-5311,-5017,-4652,-4212,-3457,-1752,353,1228,1281,1242,1383,1313,1282,1218,1156,1083,1040,1071,1097,1097,1052,1091,1036,772,556,568,447,549,739,865,791,679,436,205,-362,-2430,-3015,-3122,-2089,-1607,-171,100,692,512,-892,-3987,-4449,-4692,-4423,-4410,-4432,-4260,-3889,-2871,-515,-1795,-3541,-3829,-3379,-3281,-3050,-2991,-3455,-3742,-4134,-4535,-4893,-4961,-5024,-4946,-5037,-5005,-4999,-4999,-5000,-4993,-5076,-5016,-4923,-4510,-3437,-2641,-2943,-5196,-4860,-5365,-5216,-5521,-5374,-5178,-5209,-5135,-5507,-5423,-5889,-5732,-5600,-5958,-5969,-5892,-5942,-5759,-5567,-5376,-5543,-5218,-4314,-4860,-5284,-5597,-5573,-5554,-5039,-2398,-1016,-175,-67,-52,13,267,346,178,40,56,121,177,177,141,93,29,-1,-23,-49,-45,-52,-10,70,130,144,-277,-1849,-1286,-1251,-1105,-1577,-2456,-3625,-4485,-4477,-3454,-3415,-2960,-2974,-3048,-3733,-4519,-4489,-4140,-3812,-3596,-1937,-1054,-2035,-3047,-3040,-3051,-3086,-3003,-3000,-2837,-2854,-2631,-2479,-2447,-2350,-2300,-1884,-1908,-1862,-2108,-1689,-5158,-4810,-4608,-5103,-5222,-5391,-5336,-5519,-5445,-5459,-5221,-4717,-4977,-5036,-5001,-4687,-4368,-4347,-4234,-4313,-4468,-4405,-4318,-4149,-2977,-1662,-1107,-1653,-2682,-3484,-2868,-2239,-2003,-2850,-3858,-4032,-4073,-4041,-3902,-4027,-4070,-4063,-4000,-4000,-4000,-3934,-3844,-3793,-3793,-3785,-3735,-3690,-3647,-3669,-3597,-3460,-3400,-3300,-3214,-3094,-3004,-3289,-3426,-3573,-3653,-3693,-3786,-3803,-3912,-4026,-3966,-3850,-3789,-3542,-3569,-3548,-3557,-3676,-3827,-3924,-4107,-4236,-4292,-4405,-4454,-4494,-4540,-4662,-4694,-4716,-4736,-4663,-4599,-4555,-4187,-3589,-3613,-1892,1199,2974,4102,4510,4190,3972,2539,1058,468,220,219,248,298,284,247,353,276,235,221,457,587,578,440,333,536,709,934,892,690,626,542,584,694,766,428,131,-1019,-3723,-4237,-4372,-4501,-4589,-4461,-4417,-4896,-5161,-5372,-5415,-5516,-5418,-5503,-5471,-5156,-5091,-4895,-4592,-4168,-3967,-3686,-3353,-2951,-2895,-3052,-3553,-3883,-3883,-4077,-4152,-3986,-4000,-4717,-4921,-4960,-5069,-5280
-5455,-5494,-5420,-5420,-5420,-5391,-5311,-5051,-4734,-4198,-3365,-880,637,1156,1162,1146,1176,1081,1146,1176,1082,1036,1037,1043,1082,1070,1179,932,663,997,904,793,540,311,215,384,372,221,124,-125,-1510,-2332,-2536,-1073,20,177,115,492,1032,329,-1438,-4271,-4558,-4708,-4636,-4431,-4474,-4227,-3172,-429,-994,-3020,-3450,-3790,-3660,-3246,-3150,-3195,-3453,-3989,-4409,-4667,-4477,-5003,-4627,-4831,-4961,-4735,-4835,-4984,-5063,-5216,-5420,-5318,-5162,-5028,-4846,-3177,-2659,-5134,-5075,-5111,-5054,-5438,-5010,-5254,-5377,-5313,-5598,-5527,-5867,-6009,-6004,-5982,-5912,-5944,-5914,-5654,-5507,-5454,-5534,-5102,-3771,-2882,-3861,-4496,-4549,-5034,-2863,-1072,-357,-55,-27,0,112,428,433,350,148,160,170,180,246,234,224,125,61,27,-9,-9,-36,9,71,165,362,60,-1238,-1259,-1079,-505,-631,-888,-1765,-3083,-3382,-3186,-2950,-2736,-3014,-3568,-4448,-4537,-4241,-4414,-4296,-4399,-4054,-1356,-1337,-2931,-3037,-3048,-2996,-2846,-2842,-2655,-2789,-1888,-903,-351,-527,-1752,-2066,-2417,-2037,-1891,-1495,-5148,-5443,-4699,-5210,-5008,-5487,-5582,-5523,-5505,-5416,-5116,-4571,-4944,-5041,-5024,-4783,-4588,-4389,-3830,-4109,-3576,-2458,-3706,-3988,-4072,-3714,-2034,-1179,-1186,-1475,-2175,-2447,-2465,-2564,-3106,-3895,-4086,-4309,-4024,-4049,-4071,-4057,-4030,-4000,-4005,-3825,-3858,-3797,-3762,-3747,-3701,-3654,-3579,-3608,-3578,-3468,-3401,-3266,-3173,-3044,-3055,-3314,-3466,-3609,-3691,-3718,-3736,-3743,-4063,-4002,-3915,-3540,-3753,-3856,-3787,-3904,-3837,-4070,-4063,-4250,-4284,-4389,-4427,-4427,-4363,-4429,-4498,-4581,-4606,-4551,-4649,-4580,-4562,-4522,-3750,-2864,-3244,-4557,-3641,-603,953,2932,4393,4048,4109,2564,1687,386,288,289,358,273,148,188,125,124,122,221,492,635,529,541,648,813,887,892,619,536,658,790,624,546,389,107,-470,-3008,-3878,-4143,-4353,-4544,-4591,-4711,-4897,-4980,-5204,-5319,-5486,-5345,-5065,-5040,-4769,-4710,-4658,-4381,-4075,-4002,-3754,-3488,-3342,-3211,-3416,-3560,-3650,-3778,-4082,-4210,-4299,-4131,-4734,-5078,-4978,-5127,-5152
-5498,-5347,-5390,-5400,-5403,-5372,-5266,-4985,-4750,-4312,-3386,-527,1074,1164,1120,1098,1117,1043,1060,1143,1100,1040,1002,991,982,1031,1026,721,801,1011,1331,1222,987,585,210,160,77,-21,-610,-1677,-2270,-2369,-1986,-348,183,484,580,919,850,-169,-3103,-4568,-4728,-4848,-4695,-4552,-4409,-4187,-3064,-963,-3076,-3381,-3406,-3569,-3498,-3325,-3053,-2991,-3341,-3965,-4313,-4669,-4491,-4803,-4650,-4759,-4640,-4651,-4775,-4996,-5076,-5142,-5097,-5341,-5206,-4775,-4487,-3030,-2813,-5080,-5175,-5303,-5484,-5150,-4961,-5443,-5623,-5454,-5771,-5555,-5884,-6001,-5964,-5858,-5743,-5734,-5759,-5567,-5580,-5584,-5403,-5096,-4218,-2121,-2330,-2636,-2307,-2442,-956,-271,-177,-62,65,27,103,264,388,430,248,351,261,211,236,225,246,234,245,175,39,1,-10,39,114,237,472,383,-221,-1201,-771,-488,-345,-558,-1336,-2149,-2771,-2137,-2544,-3022,-3019,-3825,-3942,-4029,-3888,-3434,-4308,-4480,-4559,-4306,-821,-2300,-3007,-2993,-2979,-2827,-2536,-2315,-2489,-29,-199,-1581,-1321,-1043,-2113,-2050,-2077,-1539,-1469,-5689,-5137,-4959,-5035,-5283,-5429,-5480,-5450,-5409,-4984,-4841,-4872,-4988,-5005,-4911,-4704,-4630,-4565,-4262,-4285,-4326,-3802,-3312,-2172,-3512,-3979,-3899,-2914,-3143,-2418,-2177,-2744,-3226,-3135,-2437,-3077,-3631,-3994,-4035,-4049,-4051,-4043,-4048,-4032,-4022,-4013,-3895,-3782,-3748,-3742,-3691,-3653,-3605,-3550,-3567,-3439,-3372,-3271,-3118,-2942,-3074,-3284,-3476,-3599,-3677,-3793,-3852,-4048,-4005,-4047,-4059,-4070,-4058,-4132,-4173,-4182,-4200,-4215,-4091,-4275,-4313,-4391,-4421,-4458,-4435,-4402,-4446,-4481,-4548,-4572,-4561,-4514,-4485,-3859,-3292,-3473,-4070,-4336,-5007,-5028,-1947,202,2352,4270,3957,3918,3509,2689,1260,529,300,297,264,196,128,123,122,134,513,695,748,745,561,640,745,812,628,636,710,800,729,555,253,39,-431,-1802,-3158,-3870,-4327,-4451,-4555,-4749,-4830,-4918,-5153,-5339,-5363,-5466,-5486,-5396,-5009,-4864,-4774,-4529,-4010,-3837,-3703,-3388,-3054,-2882,-2944,-3389,-3560,-3778,-4075,-4166,-4288,-4679,-4979,-5069,-5149,-5014,-5183
-5264,-5442,-5419,-5419,-5384,-5293,-5282,-5151,-4899,-4466,-3456,-714,569,1231,1177,1104,1108,1075,1071,1063,1031,1004,983,951,986,1009,917,1001,1114,1117,1302,1367,1270,518,156,59,-13,-686,-1985,-2456,-2528,-2110,-2030,-989,192,714,1127,1250,697,-1062,-4062,-4636,-4785,-4750,-4678,-4500,-4127,-3224,-2926,-2811,-3793,-3782,-3490,-3566,-3132,-2627,-2913,-3078,-3473,-3764,-3961,-4234,-4301,-4529,-4557,-4612,-4753,-4800,-5189,-4994,-5068,-5016,-5273,-5320,-5000,-4764,-4595,-2856,-3233,-4932,-5073,-5459,-5253,-4937,-5310,-5547,-5579,-5507,-5867,-5837,-5788,-6006,-5914,-5750,-5622,-5615,-5629,-5600,-5536,-5252,-4661,-4623,-3279,-1645,-1668,-1505,-1017,-633,-212,-133,-86,-26,111,112,99,140,274,388,368,406,316,236,234,249,217,220,263,244,102,41,33,56,193,402,587,373,-6,-288,-797,-869,-1109,-1496,-1868,-2455,-2437,-2320,-2606,-3229,-2448,-3644,-3156,-3044,-2543,-1430,-3093,-3990,-4423,-4687,-1457,-1533,-2762,-3013,-2994,-2936,-2870,-2686,-2795,-1375,-1051,-2299,-1694,-757,-2285,-2337,-2293,-1176,-2779,-5724,-5339,-4898,-4262,-4759,-5339,-5300,-5287,-5216,-4585,-4834,-4855,-4856,-4539,-4765,-4647,-4638,-4638,-4554,-4531,-3780,-4038,-3836,-3450,-3661,-4141,-4296,-4532,-4075,-4125,-3614,-3351,-3157,-3595,-3108,-2973,-2455,-3243,-3400,-3770,-4057,-4065,-4046,-4038,-4020,-4020,-3846,-3722,-3772,-3707,-3626,-3647,-3649,-3612,-3537,-3420,-3317,-3181,-3085,-2982,-3071,-3222,-3490,-3615,-3719,-3831,-3908,-3940,-4013,-4042,-4067,-4129,-4179,-4181,-4184,-4182,-4191,-4122,-3971,-4360,-4252,-4368,-4360,-4414,-4422,-4397,-4415,-4474,-4496,-4492,-4480,-4449,-4153,-3268,-3631,-4179,-4532,-4523,-4414,-4373,-5147,-2211,-9,3818,3950,3775,3963,2633,1974,753,313,297,443,335,133,124,122,154,324,557,651,425,401,575,685,809,861,611,660,928,524,456,176,-10,-32,-1825,-3799,-3987,-4207,-4330,-4358,-4438,-4662,-4956,-5153,-5304,-5440,-5596,-5623,-5498,-5172,-5084,-4984,-4741,-4348,-3938,-3863,-3499,-3294,-2992,-2944,-3271,-3585,-3858,-4018,-4221,-4674,-4956,-5002,-5078,-5024,-5076,-5192
-5282,-5402,-5406,-5427,-5309,-5036,-5171,-5014,-4549,-3298,-1564,-624,-47,813,1214,1245,1265,1408,1216,1075,1034,982,927,946,965,952,999,1070,1279,1306,1291,1053,1011,340,54,-24,-245,-1479,-2220,-2662,-2686,-2595,-2167,-1364,47,493,1298,1480,329,-2537,-4425,-4695,-4798,-4697,-4383,-4344,-4063,-1701,-2893,-3898,-3855,-3089,-2805,-2290,-2787,-2505,-2679,-3038,-3133,-3312,-3639,-4112,-4381,-4566,-4561,-4607,-4755,-4703,-5231,-4968,-4987,-4951,-5206,-5027,-4966,-4702,-4258,-2218,-3331,-4867,-5075,-5242,-5064,-5057,-5276,-5351,-5503,-5654,-5917,-5990,-6001,-6000,-5999,-5733,-5530,-5591,-5593,-5549,-5234,-4598,-3727,-2719,-1677,-1168,-1377,-722,-146,-91,-57,-47,-25,40,125,166,189,208,303,342,386,423,337,284,271,301,276,227,239,257,235,160,78,95,234,614,615,400,130,-2,-14,-108,-395,-466,-687,-2114,-2937,-3135,-2495,-2623,-492,-1947,-2542,-3240,-3354,-867,-2297,-2578,-3797,-4597,-3088,-1142,-2469,-3141,-3034,-2869,-2982,-3044,-3026,-2581,-2623,-2870,-2186,-1120,-2364,-2349,-2165,-1022,-4456,-6783,-5522,-5014,-4340,-5040,-4952,-5151,-5083,-5106,-4996,-4823,-4822,-4791,-4452,-4036,-4282,-4665,-4657,-4626,-4629,-4521,-3894,-4053,-4021,-3832,-4240,-4444,-4259,-4251,-4197,-4750,-4071,-3752,-3723,-3448,-3820,-3754,-3517,-3346,-3399,-3701,-3950,-4075,-4049,-4014,-4015,-3926,-3811,-3747,-3674,-3675,-3638,-3611,-3569,-3520,-3411,-3344,-3212,-3194,-3038,-3231,-3408,-3542,-3670,-3782,-3868,-3918,-3927,-4009,-4038,-4083,-4136,-4157,-4173,-4213,-4208,-4224,-4153,-4020,-4189,-4294,-4226,-4072,-4258,-4333,-4316,-4350,-4462,-4505,-4492,-4370,-4002,-3350,-3626,-4200,-4447,-4601,-4720,-4819,-4590,-4234,-5080,-793,2868,3904,3765,4353,3414,2102,833,346,306,270,185,122,127,122,232,394,464,401,354,346,532,715,856,938,679,790,830,478,386,163,-80,-303,-2514,-3828,-4157,-4205,-4191,-4208,-4297,-4672,-5070,-5170,-5265,-5426,-5603,-5596,-5454,-5448,-5147,-4994,-4764,-4583,-4227,-4000,-3835,-3476,-3075,-2885,-2994,-3366,-3662,-3898,-4454,-4719,-4853,-4959,-4861,-5049,-5155,-5286
